ply
format ascii 1.0
element face 0
property list uchar int vertex_indices
element vertex 917
property float x
property float y
property float z
property uchar diffuse_red
property uchar diffuse_green
property uchar diffuse_blue
end_header
1.364050e-01 -3.332102e-01 -2.706162e+00 159 146 138
-1.305990e-01 -2.282405e-01 -2.640677e+00 161 162 170
4.376822e-01 -2.579764e-01 -2.721293e+00 101 134 169
-2.388335e-02 5.231596e-02 -2.544624e+00 143 140 136
-3.982801e-01 1.893510e-01 -2.798956e+00 22 23 27
8.724776e-01 5.221053e-02 -2.787396e+00 169 164 158
-3.503362e-01 2.484101e-01 -2.811389e+00 174 170 171
-3.251776e-01 3.951587e-01 -2.838805e+00 32 35 40
9.086764e-01 2.228447e-01 -2.807386e+00 192 175 147
-3.707661e-01 5.870630e-01 -2.745306e+00 18 21 30
-8.132754e-02 -3.548964e-01 -2.703232e+00 120 119 101
3.444900e-01 -1.870231e-01 -2.737354e+00 181 169 157
1.107376e+00 -7.309414e-02 -2.798155e+00 189 173 163
1.051354e+00 3.160793e-01 -2.804020e+00 189 149 150
-1.051896e-01 4.970461e-01 -2.831141e+00 31 41 53
2.477138e-01 6.396529e-01 -2.867253e+00 170 161 154
1.865336e-03 7.613434e-01 -2.798868e+00 52 41 48
6.123630e-01 -1.466176e-01 -2.750528e+00 56 51 58
8.650694e-01 1.885718e-01 -2.796550e+00 173 156 126
9.228006e-01 1.957383e-01 -2.805643e+00 62 66 49
-1.242253e-01 4.629784e-01 -2.837228e+00 163 159 158
-1.242253e-01 4.629784e-01 -2.837228e+00 163 159 158
2.196198e-01 6.507174e-01 -2.856100e+00 51 49 52
5.455759e-01 -7.759048e-02 -2.733247e+00 167 154 145
3.319228e-01 3.448915e-01 -2.762854e+00 169 187 197
5.520704e-01 5.819225e-01 -2.769657e+00 161 156 165
4.308774e-01 -2.113716e-01 -2.730853e+00 38 44 56
6.919172e-02 6.141833e-01 -2.830042e+00 182 173 168
4.669144e-01 -1.707063e-01 -2.741900e+00 169 161 153
5.738100e-01 -1.262391e-01 -2.722922e+00 38 36 41
4.040176e-01 -9.303534e-01 -2.621800e+00 80 73 62
4.671589e-01 -9.503760e-01 -2.626220e+00 225 203 184
1.119700e-01 -8.436505e-01 -2.589528e+00 77 78 70
2.154753e-01 -9.407636e-01 -2.680649e+00 144 161 198
4.433474e-01 -9.393810e-01 -2.627941e+00 180 172 163
2.368473e-01 -9.285387e-01 -2.675952e+00 30 45 103
5.034995e-01 -9.179960e-01 -2.593617e+00 175 170 177
4.676389e-01 -9.351213e-01 -2.627239e+00 84 55 54
4.612293e-01 -9.322510e-01 -2.626001e+00 190 175 155
4.612293e-01 -9.322510e-01 -2.626001e+00 190 175 155
1.381758e-01 -8.224616e-01 -2.581458e+00 54 52 98
3.930656e-01 -9.073649e-01 -2.622951e+00 196 184 170
4.737603e-01 -9.342982e-01 -2.628061e+00 227 203 185
4.080643e-01 -9.076688e-01 -2.623592e+00 79 70 53
3.442654e-01 -8.860550e-01 -2.617309e+00 133 104 103
4.014725e-01 -9.029723e-01 -2.622190e+00 234 218 206
3.884374e-01 -8.947654e-01 -2.621692e+00 40 27 31
-1.968914e-01 -8.999055e-01 -2.695762e+00 174 166 176
1.491121e-01 -8.109259e-01 -2.580060e+00 199 199 215
-1.636872e-02 -8.595858e-01 -2.652629e+00 37 42 38
3.988620e-01 -8.936330e-01 -2.622780e+00 64 47 43
5.072555e-01 -8.920216e-01 -2.588432e+00 204 198 193
1.034319e-01 -8.378308e-01 -2.622445e+00 30 23 10
4.541488e-01 -9.073981e-01 -2.629065e+00 240 240 243
4.896822e-01 -8.819894e-01 -2.590254e+00 131 115 134
4.976318e-01 -8.835968e-01 -2.590961e+00 119 104 125
1.300742e-01 -8.030688e-01 -2.589725e+00 80 83 94
1.300742e-01 -8.030688e-01 -2.589725e+00 80 83 94
3.861458e-01 -8.808111e-01 -2.631373e+00 131 128 136
-6.055079e-03 -8.822513e-01 -2.699329e+00 151 151 152
5.227418e-01 -8.813283e-01 -2.590006e+00 121 113 130
5.022152e-01 -8.744128e-01 -2.589899e+00 123 121 119
5.096176e-01 -8.719601e-01 -2.590312e+00 123 108 82
-2.224619e-01 -8.666714e-01 -2.693688e+00 133 127 133
5.433334e-01 -8.863641e-01 -2.600515e+00 162 166 167
1.157314e-01 -8.128186e-01 -2.625937e+00 168 153 136
4.754158e-01 -8.880178e-01 -2.632510e+00 193 178 192
2.825614e-01 -8.686942e-01 -2.666867e+00 208 201 185
3.554533e-01 -8.239731e-01 -2.611391e+00 205 196 190
6.881776e-02 -7.886271e-01 -2.621739e+00 206 197 221
-2.122886e-01 -8.352381e-01 -2.698709e+00 183 169 169
-2.150818e-01 -8.350949e-01 -2.698981e+00 41 36 40
-2.136106e-01 -8.319583e-01 -2.699494e+00 46 40 48
4.315685e-01 -8.426672e-01 -2.627164e+00 179 167 155
9.427065e-02 -7.752016e-01 -2.626688e+00 183 173 164
5.476972e-01 -8.500929e-01 -2.604721e+00 183 194 182
2.897170e-01 -8.291944e-01 -2.658970e+00 230 230 232
4.975449e-01 -8.418569e-01 -2.616539e+00 222 155 156
5.037328e-01 -8.457361e-01 -2.626557e+00 218 151 147
2.119398e-01 -7.517953e-01 -2.589976e+00 94 91 96
9.871643e-02 -7.642686e-01 -2.626230e+00 177 167 156
3.915951e-01 -8.084128e-01 -2.625370e+00 25 5 3
4.976732e-01 -8.400915e-01 -2.631688e+00 207 150 132
-1.630846e-01 -7.404135e-01 -2.613009e+00 108 81 76
4.001436e-01 -8.094393e-01 -2.626252e+00 47 27 34
3.532644e-01 -7.824377e-01 -2.617190e+00 254 231 243
3.941865e-01 -7.929606e-01 -2.623331e+00 192 186 160
3.941865e-01 -7.929606e-01 -2.623331e+00 192 186 160
3.990642e-01 -7.928252e-01 -2.623315e+00 229 215 191
5.324142e-01 -8.337828e-01 -2.638796e+00 206 165 177
5.352776e-01 -8.385223e-01 -2.646276e+00 206 165 177
5.365259e-01 -8.335240e-01 -2.639362e+00 232 177 183
3.860945e-01 -7.847189e-01 -2.627766e+00 182 167 166
3.565221e-01 -7.689930e-01 -2.616461e+00 236 233 232
5.086200e-01 -8.211264e-01 -2.637760e+00 86 61 59
5.086200e-01 -8.211264e-01 -2.637760e+00 86 61 59
5.069702e-01 -8.115865e-01 -2.635563e+00 226 210 178
2.435874e-02 -7.721159e-01 -2.698342e+00 35 35 30
5.148178e-01 -8.118627e-01 -2.638337e+00 84 66 68
3.629761e-01 -7.613069e-01 -2.621118e+00 201 189 174
5.393526e-01 -8.194599e-01 -2.644473e+00 208 180 158
1.507036e-01 -7.290889e-01 -2.631863e+00 166 165 153
4.398847e-01 -7.785975e-01 -2.629867e+00 82 61 55
-1.024829e-01 -7.627402e-01 -2.705867e+00 153 144 137
1.535858e-02 -7.578588e-01 -2.700142e+00 127 116 115
5.020393e-01 -7.911978e-01 -2.637541e+00 167 151 155
4.831469e-01 -7.834063e-01 -2.634244e+00 45 20 33
4.917402e-01 -7.834602e-01 -2.635486e+00 55 28 39
5.186954e-01 -7.913543e-01 -2.638285e+00 90 85 96
4.751784e-01 -7.744185e-01 -2.632435e+00 76 42 52
2.499419e-02 -7.481649e-01 -2.698389e+00 59 57 50
2.499419e-02 -7.481649e-01 -2.698389e+00 59 57 50
4.915566e-01 -7.733997e-01 -2.631884e+00 51 20 32
4.897362e-01 -7.729084e-01 -2.632651e+00 234 211 190
2.545801e-02 -7.413658e-01 -2.698879e+00 159 147 133
4.491680e-01 -7.568715e-01 -2.628714e+00 69 53 38
5.662890e-01 -7.909063e-01 -2.639217e+00 228 197 172
-2.737295e-01 -6.703872e-01 -2.612035e+00 41 31 21
5.392271e-02 -7.379399e-01 -2.701402e+00 205 196 198
5.611950e-01 -7.886905e-01 -2.640963e+00 233 229 183
7.406649e-02 -7.338752e-01 -2.702758e+00 163 152 151
5.430315e-01 -7.726547e-01 -2.641289e+00 72 40 34
6.336309e-02 -7.259386e-01 -2.702297e+00 54 48 33
6.563042e-02 -7.206821e-01 -2.700825e+00 51 43 25
5.995324e-01 -7.831893e-01 -2.657857e+00 149 148 157
-2.934223e-01 -5.960376e-01 -2.584790e+00 122 124 123
4.303113e-01 -6.999163e-01 -2.649189e+00 56 48 45
8.233162e-01 -8.463180e-01 -2.707765e+00 167 166 179
8.404491e-01 -8.418642e-01 -2.704629e+00 135 129 131
4.112307e-01 -6.852773e-01 -2.651988e+00 181 177 174
8.366699e-01 -8.350945e-01 -2.704702e+00 56 58 49
8.319487e-01 -8.367432e-01 -2.722367e+00 175 162 157
8.187393e-01 -8.345219e-01 -2.738089e+00 199 193 208
8.579252e-01 -8.288594e-01 -2.713264e+00 107 84 87
-4.123827e-01 -5.695284e-01 -2.593360e+00 93 69 65
4.571763e-01 -6.464270e-01 -2.618537e+00 168 161 176
4.660885e-01 -6.475809e-01 -2.619424e+00 125 122 119
8.633147e-01 -8.191718e-01 -2.724173e+00 144 143 138
4.687683e-01 -6.470841e-01 -2.619921e+00 109 111 105
5.819113e-01 -6.904729e-01 -2.650390e+00 27 26 21
8.727242e-01 -8.132095e-01 -2.726895e+00 85 71 84
-4.458250e-01 -5.421833e-01 -2.578027e+00 43 50 63
-4.441396e-01 -5.400603e-01 -2.578810e+00 218 226 227
-3.395029e-01 -5.552537e-01 -2.619372e+00 210 207 214
-3.395029e-01 -5.552537e-01 -2.619372e+00 210 207 214
4.668121e-01 -6.236810e-01 -2.618499e+00 130 129 125
5.245416e-01 -6.316434e-01 -2.628164e+00 153 147 151
5.080105e-01 -6.223159e-01 -2.625177e+00 180 175 178
5.080615e-01 -6.226994e-01 -2.625408e+00 180 175 178
9.035603e-01 -7.898501e-01 -2.739654e+00 164 153 142
3.940865e-01 -6.034453e-01 -2.646595e+00 163 162 160
9.343868e-01 -7.826925e-01 -2.724847e+00 248 244 241
6.231037e-01 -6.770149e-01 -2.717238e+00 51 38 47
1.376081e-01 -5.832447e-01 -2.709625e+00 172 166 154
6.079813e-01 -6.683146e-01 -2.716662e+00 141 143 133
6.292205e-01 -6.607410e-01 -2.702383e+00 195 181 182
4.163272e-01 -5.619573e-01 -2.609388e+00 56 50 48
6.163924e-01 -6.502414e-01 -2.726715e+00 178 172 148
-3.458570e-01 -4.720842e-01 -2.605641e+00 56 29 40
4.431184e-01 -5.508551e-01 -2.615306e+00 190 186 185
7.162407e-01 -6.568353e-01 -2.742494e+00 100 95 104
8.526437e-01 -6.845157e-01 -2.728356e+00 145 137 116
7.660571e-01 -6.401472e-01 -2.698248e+00 61 53 42
9.735844e-01 -7.154608e-01 -2.753119e+00 126 119 109
9.657565e-01 -7.059588e-01 -2.753707e+00 101 96 82
7.182196e-01 -6.309715e-01 -2.741876e+00 107 98 94
3.677181e-01 -5.476008e-01 -2.728045e+00 146 135 115
9.819832e-01 -6.793714e-01 -2.752949e+00 124 126 105
-3.995555e-01 -4.107120e-01 -2.625062e+00 144 144 144
-6.241731e-01 -4.061035e-01 -2.646024e+00 16 25 18
9.369061e-01 -6.339396e-01 -2.712193e+00 58 92 102
9.369061e-01 -6.339396e-01 -2.712193e+00 58 92 102
-3.873999e-01 -3.976744e-01 -2.626852e+00 61 76 66
6.620751e-01 -5.636974e-01 -2.736215e+00 141 140 135
-6.182780e-01 -3.880953e-01 -2.658151e+00 23 30 45
6.447309e-01 -5.454256e-01 -2.734383e+00 65 68 77
9.748867e-01 -6.092929e-01 -2.720144e+00 186 205 214
6.360946e-01 -5.221633e-01 -2.733696e+00 154 150 149
6.208610e-01 -5.097486e-01 -2.731383e+00 148 150 153
9.259230e-01 -5.728065e-01 -2.754317e+00 73 66 59
-6.751840e-01 -3.584715e-01 -2.770637e+00 96 89 69
4.258254e-01 -4.339172e-01 -2.699358e+00 59 65 68
4.258254e-01 -4.339172e-01 -2.699358e+00 59 65 68
-5.951451e-01 -3.378429e-01 -2.766048e+00 64 52 51
-4.932900e-01 -3.152715e-01 -2.765423e+00 182 178 164
7.092558e-01 -4.270339e-01 -2.605830e+00 91 97 106
-4.574929e-01 -2.631781e-01 -2.723535e+00 180 181 166
-3.670390e-01 -2.708920e-01 -2.721505e+00 119 115 114
-2.085464e-01 -2.660806e-01 -2.641602e+00 193 192 208
6.046868e-01 -4.037651e-01 -2.738026e+00 171 165 165
-4.032854e-01 -2.136208e-01 -2.726673e+00 176 174 180
6.366987e-01 -3.435333e-01 -2.715973e+00 76 76 59
6.371483e-01 -3.375947e-01 -2.717841e+00 127 132 106
8.490055e-01 -6.788337e-01 -4.541783e+00 110 143 174
3.280816e-01 -2.429852e-01 -2.633432e+00 7 18 36
2.153830e-01 -2.144883e-01 -2.622699e+00 44 31 30
-2.527425e-01 -1.564680e-01 -2.742567e+00 96 99 115
-2.527425e-01 -1.564680e-01 -2.742567e+00 96 99 115
7.098911e-01 -2.969872e-01 -2.731777e+00 180 178 157
7.098911e-01 -2.969872e-01 -2.731777e+00 180 178 157
8.708316e-01 -3.151653e-01 -2.723084e+00 115 111 113
8.666128e-01 -3.127560e-01 -2.725582e+00 181 178 165
8.666128e-01 -3.127560e-01 -2.725582e+00 181 178 165
-3.409406e-01 -7.723369e-02 -2.751529e+00 175 180 191
-3.354554e-01 -7.507739e-02 -2.753918e+00 195 194 207
-3.918990e-01 -6.332978e-02 -2.727481e+00 220 223 233
-1.717798e-01 -8.559775e-02 -2.751872e+00 205 201 191
8.880414e-01 -2.196794e-01 -2.748245e+00 196 187 169
4.400245e-01 -1.372755e-01 -2.742696e+00 196 188 176
6.339561e-01 -1.557499e-01 -2.746091e+00 130 127 110
-2.787421e-01 3.201661e-02 -2.764580e+00 180 179 190
6.067399e-01 -1.077357e-01 -2.752887e+00 165 158 152
6.172957e-01 -1.055071e-01 -2.754801e+00 97 84 74
6.158625e-01 -1.030825e-01 -2.754297e+00 183 170 155
-2.627600e-01 4.411150e-02 -2.766554e+00 188 187 197
6.243369e-01 -1.024119e-01 -2.749909e+00 101 84 88
4.269553e-01 -7.453818e-02 -2.755853e+00 156 157 159
5.220515e-01 -7.801530e-02 -2.751997e+00 178 177 170
4.291077e-01 -6.634816e-02 -2.758618e+00 67 71 72
4.125178e-01 -6.231523e-02 -2.745315e+00 61 62 61
-5.016563e-01 1.274476e-01 -2.695673e+00 118 126 154
-4.499863e-01 1.203412e-01 -2.709465e+00 193 193 190
-4.448003e-01 1.219378e-01 -2.707370e+00 197 197 197
6.193147e-01 -7.207475e-02 -2.703566e+00 171 157 157
3.731584e-01 -3.675825e-02 -2.719909e+00 110 80 89
-4.744444e-01 1.368876e-01 -2.709985e+00 181 171 205
4.573143e-01 -4.061975e-02 -2.753129e+00 176 169 167
4.802380e-01 -2.972116e-02 -2.757478e+00 37 42 0
5.582783e-01 -3.550895e-02 -2.759847e+00 190 184 167
4.055580e-01 -5.797417e-03 -2.752601e+00 166 163 163
5.842354e-01 -2.030457e-02 -2.759651e+00 185 178 162
4.229210e-01 1.215624e-02 -2.752520e+00 149 146 145
4.672332e-01 3.146254e-02 -2.764677e+00 147 138 128
6.106784e-01 2.104462e-02 -2.765267e+00 179 177 163
6.846261e-01 1.940324e-02 -2.768571e+00 176 173 152
6.389493e-01 2.416975e-02 -2.765753e+00 197 189 183
4.641770e-01 6.320441e-02 -2.768429e+00 178 177 173
7.254304e-01 7.194856e-02 -2.763382e+00 197 207 185
7.329819e-01 7.039271e-02 -2.738128e+00 153 135 133
4.268834e-01 1.724226e-01 -2.775659e+00 205 201 200
4.329082e-01 1.719117e-01 -2.770527e+00 224 222 228
4.805006e-01 1.834757e-01 -2.750670e+00 239 239 240
4.667082e-01 2.169694e-01 -2.724211e+00 164 160 160
4.590906e-01 -9.329858e-01 -2.631432e+00 109 92 95
3.573776e-01 -8.931634e-01 -2.618052e+00 236 237 218
3.573776e-01 -8.931634e-01 -2.618052e+00 236 237 218
4.919879e-01 -9.020152e-01 -2.590765e+00 202 207 215
1.065521e-01 -8.385394e-01 -2.622835e+00 50 43 37
4.985740e-01 -8.869063e-01 -2.590660e+00 197 185 182
1.058850e-01 -8.343405e-01 -2.624104e+00 47 32 39
5.035858e-01 -8.834539e-01 -2.589010e+00 130 108 121
5.069156e-01 -8.907780e-01 -2.598607e+00 130 108 121
1.037048e-01 -8.324488e-01 -2.625308e+00 113 96 103
4.593801e-01 -9.009349e-01 -2.625838e+00 232 247 252
5.030852e-01 -8.869029e-01 -2.598637e+00 218 215 230
5.516856e-01 -9.067575e-01 -2.605485e+00 143 142 147
3.813888e-01 -8.697923e-01 -2.623452e+00 137 127 122
6.946152e-02 -8.128244e-01 -2.616690e+00 153 146 149
2.671248e-01 -8.900918e-01 -2.679904e+00 246 241 247
4.891166e-01 -8.652111e-01 -2.592941e+00 215 213 216
5.818430e-02 -7.930445e-01 -2.619374e+00 170 187 186
5.160093e-01 -8.567102e-01 -2.596706e+00 182 182 185
-2.135497e-01 -8.426260e-01 -2.696268e+00 99 87 86
5.159067e-01 -8.491343e-01 -2.599996e+00 180 189 186
-2.311587e-01 -8.345985e-01 -2.697942e+00 77 92 99
7.302388e-02 -7.796863e-01 -2.621348e+00 225 225 220
3.107642e-01 -8.222485e-01 -2.667045e+00 76 79 77
3.107642e-01 -8.222485e-01 -2.667045e+00 76 79 77
3.542964e-01 -7.853978e-01 -2.610303e+00 205 209 186
3.542964e-01 -7.853978e-01 -2.610303e+00 205 209 186
3.130861e-01 -8.143898e-01 -2.668133e+00 72 76 75
2.283232e-02 -7.869037e-01 -2.699320e+00 51 45 45
5.369278e-01 -8.263519e-01 -2.638132e+00 225 191 167
5.369278e-01 -8.263519e-01 -2.638132e+00 225 191 167
5.376193e-01 -8.218301e-01 -2.639837e+00 234 200 175
4.144891e-01 -7.781970e-01 -2.624857e+00 196 185 173
3.585937e-01 -7.569878e-01 -2.619606e+00 65 51 59
3.958504e-01 -7.692020e-01 -2.625018e+00 155 149 137
3.565548e-01 -7.528409e-01 -2.617213e+00 214 204 195
4.778764e-01 -7.883686e-01 -2.634162e+00 52 38 36
5.378268e-01 -8.083958e-01 -2.639931e+00 219 189 160
5.378268e-01 -8.083958e-01 -2.639931e+00 219 189 160
3.945048e-01 -7.603095e-01 -2.627043e+00 202 193 185
4.168927e-01 -7.584776e-01 -2.623896e+00 72 47 49
4.168927e-01 -7.584776e-01 -2.623896e+00 72 47 49
4.016984e-02 -7.401941e-01 -2.700534e+00 151 144 130
4.961949e-01 -7.709636e-01 -2.635509e+00 53 33 20
4.961949e-01 -7.709636e-01 -2.635509e+00 53 33 20
5.587917e-01 -7.831834e-01 -2.628378e+00 74 58 47
1.541173e-01 -6.977270e-01 -2.627944e+00 27 37 32
4.913899e-02 -7.347212e-01 -2.699477e+00 116 108 96
5.946873e-01 -7.826834e-01 -2.660184e+00 228 229 245
5.728251e-01 -7.550359e-01 -2.637063e+00 185 182 170
6.645527e-01 -7.990927e-01 -2.670105e+00 174 174 181
6.023291e-01 -7.185711e-01 -2.609255e+00 86 90 67
5.750103e-01 -7.170731e-01 -2.626863e+00 45 46 28
5.081203e-01 -6.911243e-01 -2.626930e+00 66 77 78
9.291254e-01 -8.846630e-01 -2.753732e+00 162 150 139
8.553486e-01 -8.295587e-01 -2.709596e+00 187 193 191
9.141255e-01 -8.647518e-01 -2.747063e+00 52 38 26
4.982740e-01 -6.610898e-01 -2.624416e+00 187 184 176
8.129736e-01 -8.115249e-01 -2.732799e+00 162 151 143
7.571318e-01 -7.944085e-01 -2.742343e+00 131 129 126
6.647856e-01 -6.967803e-01 -2.636539e+00 30 30 29
6.647856e-01 -6.967803e-01 -2.636539e+00 30 30 29
-4.047906e-01 -5.450654e-01 -2.595085e+00 52 39 52
7.970527e-01 -7.819407e-01 -2.735489e+00 61 56 54
5.085885e-01 -6.399280e-01 -2.622684e+00 164 161 156
6.536132e-01 -6.872895e-01 -2.641503e+00 63 65 64
8.357394e-01 -7.684745e-01 -2.713934e+00 114 115 102
7.441353e-01 -7.343380e-01 -2.746414e+00 161 158 154
5.373418e-01 -6.173190e-01 -2.626793e+00 159 146 138
5.042323e-01 -5.970435e-01 -2.623670e+00 137 137 135
8.673763e-01 -7.450716e-01 -2.731754e+00 70 53 71
2.216514e-01 -5.648260e-01 -2.669204e+00 126 93 76
-3.358963e-01 -5.004957e-01 -2.620462e+00 194 193 189
6.236337e-01 -6.477746e-01 -2.700800e+00 213 200 190
9.511865e-01 -7.585704e-01 -2.749921e+00 159 148 129
5.413519e-01 -5.740944e-01 -2.628290e+00 172 163 156
-4.032135e-01 -4.579309e-01 -2.624297e+00 168 170 183
6.074007e-01 -6.046691e-01 -2.702163e+00 63 67 75
9.776549e-01 -7.137999e-01 -2.752136e+00 83 76 66
-2.741546e-01 -4.378643e-01 -2.637762e+00 53 58 76
9.889960e-01 -6.942481e-01 -2.745257e+00 55 52 45
9.074592e-01 -6.508921e-01 -2.706507e+00 179 183 185
7.234321e-01 -5.860000e-01 -2.744875e+00 202 189 175
7.722776e-01 -5.824592e-01 -2.726428e+00 145 128 106
-3.785949e-01 -3.780003e-01 -2.623687e+00 69 77 86
-2.840535e-01 -3.794830e-01 -2.641031e+00 23 31 43
-3.375968e-01 -3.735647e-01 -2.644643e+00 144 147 163
3.665450e-01 -4.650483e-01 -2.696511e+00 173 173 168
8.343546e-01 -5.575709e-01 -2.732630e+00 40 36 30
9.478073e-01 -5.715931e-01 -2.723021e+00 192 199 203
-6.401861e-01 -3.558236e-01 -2.769354e+00 36 40 33
-6.401861e-01 -3.558236e-01 -2.769354e+00 36 40 33
9.655551e-01 -5.590665e-01 -2.717964e+00 102 101 108
9.655551e-01 -5.590665e-01 -2.717964e+00 102 101 108
9.502846e-01 -5.489496e-01 -2.726825e+00 191 178 175
6.033078e-01 -4.416001e-01 -2.735500e+00 154 153 155
-2.023241e-01 -2.520322e-01 -2.644258e+00 215 214 224
6.908483e-01 -3.698056e-01 -2.598501e+00 61 56 71
-3.900607e-01 -2.319308e-01 -2.724962e+00 66 82 83
-4.392826e-01 -2.243443e-01 -2.725178e+00 130 132 131
-7.799054e-01 -1.782519e-01 -2.756386e+00 61 66 68
-3.838566e-01 -2.174985e-01 -2.727875e+00 184 181 176
6.472862e-01 -3.361999e-01 -2.718489e+00 145 147 114
-3.259552e-01 -1.962873e-01 -2.739141e+00 191 189 198
3.321937e-01 -2.538536e-01 -2.635584e+00 173 180 184
3.320284e-01 -2.540725e-01 -2.636572e+00 173 180 184
8.729968e-01 -3.430577e-01 -2.703508e+00 244 244 244
5.579276e-01 -2.956719e-01 -2.739508e+00 179 175 163
3.853012e-01 -2.504398e-01 -2.637273e+00 157 185 202
7.335381e-01 -2.949196e-01 -2.734832e+00 134 128 110
7.007118e-01 -2.875239e-01 -2.730590e+00 183 174 159
7.529239e-01 -2.844641e-01 -2.739410e+00 167 158 136
7.348449e-01 -2.794737e-01 -2.736249e+00 202 197 157
-3.098011e-01 -1.122740e-01 -2.748082e+00 192 191 189
-3.996468e-01 -3.056289e-03 -2.715690e+00 40 46 51
6.203731e-01 -1.684115e-01 -2.744590e+00 183 176 168
-3.960897e-01 -9.766598e-04 -2.709884e+00 147 150 161
-3.935780e-01 6.509911e-04 -2.713592e+00 25 25 43
6.086324e-01 -1.584889e-01 -2.744238e+00 77 68 73
-3.716045e-01 2.162917e-02 -2.687983e+00 47 40 47
5.922580e-01 -1.240524e-01 -2.749549e+00 152 142 139
-3.266039e-01 3.231746e-02 -2.753184e+00 75 80 83
4.431735e-01 -1.020058e-01 -2.745718e+00 154 135 118
-2.987885e-01 4.742011e-02 -2.765668e+00 46 54 57
3.716164e-01 -7.335954e-02 -2.751684e+00 130 127 115
9.336677e-01 -1.108410e-01 -2.726650e+00 244 238 232
5.417503e-01 -5.708639e-02 -2.755874e+00 53 54 59
6.175787e-01 -6.326361e-02 -2.758286e+00 87 70 60
3.692864e-01 -3.504172e-02 -2.713901e+00 176 176 166
3.702300e-01 -3.399235e-02 -2.720055e+00 176 176 166
-4.423399e-01 1.346958e-01 -2.708391e+00 160 158 159
-4.423399e-01 1.346958e-01 -2.708391e+00 160 158 159
6.516500e-01 -3.231794e-02 -2.718080e+00 158 146 146
5.835352e-01 -1.796138e-02 -2.761987e+00 161 152 141
5.938370e-01 -5.205723e-03 -2.762520e+00 163 158 144
3.382871e-01 3.423916e-02 -2.747991e+00 57 56 37
3.370067e-01 3.792749e-02 -2.754933e+00 117 121 89
6.398699e-01 2.782895e-02 -2.770069e+00 167 160 152
6.474993e-01 2.751587e-02 -2.768667e+00 180 174 175
2.815080e-01 1.016799e-01 -2.759277e+00 57 68 49
3.087073e-01 1.009592e-01 -2.763080e+00 67 73 43
3.798685e-01 1.147444e-01 -2.766474e+00 82 91 56
3.738648e-01 1.213399e-01 -2.770626e+00 107 118 78
3.281664e-01 1.374614e-01 -2.768623e+00 112 111 80
4.873256e-01 1.318874e-01 -2.743564e+00 25 19 16
4.418696e-01 1.714033e-01 -2.774079e+00 193 189 185
5.723726e-01 1.946707e-01 -2.712264e+00 40 59 112
5.265270e-01 1.904223e-01 -2.686166e+00 238 233 229
5.286523e-01 1.915522e-01 -2.685315e+00 115 107 119
-6.280035e-02 3.854581e-01 -2.792983e+00 159 165 159
4.461393e-01 -9.462924e-01 -2.628891e+00 253 253 250
5.088324e-01 -9.052503e-01 -2.590592e+00 223 218 223
9.142156e-02 -8.304036e-01 -2.621529e+00 38 39 34
5.203141e-01 -8.897818e-01 -2.588690e+00 165 162 170
4.180255e-01 -8.864739e-01 -2.625121e+00 175 159 159
-1.554822e-01 -8.834208e-01 -2.700211e+00 99 91 90
4.061760e-01 -8.802842e-01 -2.633465e+00 52 62 66
4.736697e-01 -8.953435e-01 -2.628810e+00 247 234 217
2.420370e-01 -8.072225e-01 -2.603284e+00 156 156 146
2.398892e-01 -7.989192e-01 -2.601766e+00 162 160 162
7.191413e-02 -7.882166e-01 -2.623115e+00 57 48 66
2.405660e-01 -7.916618e-01 -2.604334e+00 119 120 122
3.450361e-01 -8.212796e-01 -2.617612e+00 32 27 34
3.881329e-01 -8.329539e-01 -2.621989e+00 122 105 90
1.214926e-01 -7.871304e-01 -2.627791e+00 179 169 158
7.146404e-02 -7.576044e-01 -2.620179e+00 111 101 104
3.077635e-01 -8.132452e-01 -2.658668e+00 145 155 151
3.360659e-01 -8.209608e-01 -2.665188e+00 55 46 52
3.697077e-01 -7.914852e-01 -2.622045e+00 105 99 94
3.697077e-01 -7.914852e-01 -2.622045e+00 105 99 94
3.544107e-01 -7.635307e-01 -2.616687e+00 216 210 204
3.544107e-01 -7.635307e-01 -2.616687e+00 216 210 204
2.608457e-01 -7.283137e-01 -2.604924e+00 135 133 138
1.416748e-02 -7.689379e-01 -2.700689e+00 43 43 43
6.839855e-01 -9.257828e-01 -2.747561e+00 168 159 144
2.622935e-01 -7.069979e-01 -2.603926e+00 118 118 119
4.933821e-01 -7.790004e-01 -2.636031e+00 46 17 28
3.612042e-02 -7.450920e-01 -2.700651e+00 125 116 104
-4.077799e-01 -6.855277e-01 -2.612495e+00 206 206 199
-4.077799e-01 -6.855277e-01 -2.612495e+00 206 206 199
4.979460e-01 -7.743308e-01 -2.633813e+00 221 196 156
3.686248e-01 -7.311853e-01 -2.619211e+00 30 18 23
4.228078e-02 -7.372484e-01 -2.702331e+00 120 112 90
5.319868e-01 -7.738593e-01 -2.642705e+00 202 187 184
5.311195e-01 -7.366305e-01 -2.631895e+00 38 33 28
5.311195e-01 -7.366305e-01 -2.631895e+00 38 33 28
3.758316e-01 -6.892456e-01 -2.645941e+00 134 129 128
3.732144e-01 -6.780524e-01 -2.647053e+00 163 158 155
-4.241352e-01 -6.052416e-01 -2.625763e+00 198 196 200
6.331135e-01 -7.150902e-01 -2.619175e+00 117 117 89
4.151651e-01 -6.782767e-01 -2.649939e+00 188 183 177
8.486046e-01 -8.320587e-01 -2.713461e+00 56 61 55
4.620861e-01 -6.639412e-01 -2.617991e+00 55 50 57
3.653902e-01 -6.506859e-01 -2.642244e+00 150 148 146
5.077281e-01 -6.681629e-01 -2.624951e+00 132 128 129
5.096359e-01 -6.562984e-01 -2.624941e+00 202 195 185
7.765806e-01 -7.847530e-01 -2.748444e+00 186 173 164
9.343658e-01 -8.247578e-01 -2.739080e+00 209 192 177
9.343658e-01 -8.247578e-01 -2.739080e+00 209 192 177
8.973850e-01 -7.924549e-01 -2.737424e+00 116 102 89
-4.460828e-01 -5.174711e-01 -2.595952e+00 160 157 166
-5.655919e-01 -5.106738e-01 -2.612111e+00 144 155 160
-5.655919e-01 -5.106738e-01 -2.612111e+00 144 155 160
7.503526e-01 -7.143491e-01 -2.748932e+00 69 75 74
4.678462e-01 -5.784357e-01 -2.619503e+00 154 151 149
-5.274443e-01 -4.941001e-01 -2.614893e+00 216 213 208
9.422415e-01 -7.628457e-01 -2.748719e+00 86 83 66
-4.663345e-01 -4.895028e-01 -2.610666e+00 96 110 109
9.637444e-01 -7.548470e-01 -2.745963e+00 177 175 161
4.787004e-01 -5.630320e-01 -2.619881e+00 158 157 155
5.042219e-01 -5.696250e-01 -2.624134e+00 150 148 149
-3.310598e-01 -4.736145e-01 -2.614334e+00 178 182 172
5.581067e-01 -5.773905e-01 -2.632269e+00 132 131 136
5.215275e-01 -5.292419e-01 -2.628564e+00 163 163 168
-3.884397e-01 -4.258838e-01 -2.625965e+00 190 189 196
-3.602688e-01 -4.223707e-01 -2.625734e+00 181 176 173
-4.388851e-01 -4.007163e-01 -2.616673e+00 216 209 211
-5.564858e-01 -3.990312e-01 -2.731063e+00 49 45 55
-5.564858e-01 -3.990312e-01 -2.731063e+00 49 45 55
6.249457e-01 -5.147674e-01 -2.731801e+00 156 158 158
9.203606e-01 -5.614061e-01 -2.758071e+00 122 118 106
9.560780e-01 -5.593673e-01 -2.726769e+00 184 195 201
-3.324986e-01 -3.333687e-01 -2.640273e+00 44 55 76
-5.145400e-01 -3.524775e-01 -2.756806e+00 24 36 26
6.109786e-01 -4.722111e-01 -2.735811e+00 144 140 139
-5.850670e-01 -3.245163e-01 -2.768020e+00 51 41 53
6.015520e-01 -4.230649e-01 -2.731039e+00 156 154 157
-4.732807e-01 -2.700010e-01 -2.723929e+00 175 175 174
-2.115912e-01 -2.561288e-01 -2.643105e+00 183 186 195
-5.039206e-01 -2.076892e-01 -2.772765e+00 168 155 161
-2.883266e-01 -2.167402e-01 -2.737081e+00 180 177 172
-5.766950e-01 -1.606764e-01 -2.784166e+00 143 143 118
6.775208e-01 -3.180459e-01 -2.723954e+00 173 161 145
1.041520e-01 -2.109449e-01 -2.658724e+00 60 19 27
-4.706786e-01 -1.256042e-01 -2.730744e+00 126 138 116
-4.256190e-01 -1.183631e-01 -2.735919e+00 126 134 131
7.456700e-01 -2.927333e-01 -2.736907e+00 112 105 89
-3.772243e-01 -1.028237e-01 -2.738302e+00 128 128 134
-3.308284e-01 -9.708072e-02 -2.749944e+00 192 191 187
9.699350e-01 -2.738790e-01 -2.667967e+00 169 155 152
5.032141e-01 -2.115229e-01 -2.746827e+00 184 175 159
-3.190647e-01 -8.094843e-02 -2.754296e+00 195 194 190
-1.920242e-01 -1.017982e-01 -2.748350e+00 187 184 177
-3.874576e-01 -5.290536e-02 -2.725237e+00 157 162 167
6.174612e-01 -1.706086e-01 -2.742203e+00 159 150 142
-4.962014e-01 8.128386e-02 -2.703235e+00 181 181 192
-5.008883e-01 8.667415e-02 -2.703695e+00 193 194 207
6.021741e-01 -1.021934e-01 -2.754155e+00 173 161 152
-5.142044e-01 1.003214e-01 -2.707005e+00 185 183 200
5.986734e-01 -9.876450e-02 -2.753140e+00 104 90 81
4.669503e-01 -7.486948e-02 -2.746127e+00 129 128 85
5.022690e-01 -7.862649e-02 -2.716996e+00 76 68 64
6.044890e-01 -7.823815e-02 -2.760164e+00 173 160 148
5.499116e-01 -6.301181e-02 -2.752603e+00 160 153 143
3.865595e-01 -3.394803e-02 -2.738468e+00 68 77 71
6.229449e-01 -4.797488e-02 -2.760641e+00 60 56 50
6.499897e-01 -4.396183e-02 -2.714435e+00 175 160 158
6.478438e-01 -2.769978e-02 -2.766424e+00 81 73 74
6.774012e-01 -3.589220e-02 -2.715485e+00 201 174 167
3.839523e-01 2.714654e-03 -2.754096e+00 133 129 97
5.219096e-01 -1.636146e-02 -2.736493e+00 194 166 152
3.580474e-01 2.505365e-02 -2.757056e+00 61 60 32
3.352242e-01 4.237106e-02 -2.755685e+00 126 132 85
6.461167e-01 3.327688e-02 -2.767396e+00 66 57 79
3.032505e-01 8.605062e-02 -2.757757e+00 117 123 85
3.483338e-01 8.009719e-02 -2.756855e+00 47 50 40
3.483338e-01 8.009719e-02 -2.756855e+00 47 50 40
3.852442e-01 8.513572e-02 -2.763233e+00 126 128 88
7.336608e-01 5.905830e-02 -2.758277e+00 176 176 153
7.429392e-01 5.945041e-02 -2.725808e+00 189 170 165
7.454819e-01 6.179822e-02 -2.717263e+00 118 112 133
4.740016e-01 1.205426e-01 -2.771668e+00 181 177 167
4.710479e-01 1.217609e-01 -2.774300e+00 136 131 125
-3.396943e-01 2.960010e-01 -2.736178e+00 44 42 48
5.506633e-01 1.749591e-01 -2.748216e+00 125 167 202
5.565604e-01 1.792268e-01 -2.744569e+00 33 47 80
4.642269e-01 1.995570e-01 -2.768965e+00 233 227 220
2.603967e-01 -9.379680e-01 -2.672489e+00 23 29 40
4.729072e-01 -9.458616e-01 -2.632778e+00 186 162 146
4.898518e-01 -9.122063e-01 -2.591215e+00 197 204 205
4.916728e-01 -9.108408e-01 -2.602634e+00 194 194 198
3.425570e-01 -8.739221e-01 -2.617143e+00 32 19 36
3.839275e-01 -8.866856e-01 -2.623781e+00 190 188 174
2.288577e-01 -8.330343e-01 -2.605573e+00 110 109 107
2.288263e-01 -8.295616e-01 -2.600597e+00 110 109 107
4.657630e-01 -8.862235e-01 -2.619304e+00 59 64 78
4.681291e-01 -8.948030e-01 -2.630529e+00 59 64 78
3.873740e-01 -8.550895e-01 -2.613196e+00 47 53 75
2.946913e-01 -8.824970e-01 -2.668945e+00 176 174 170
2.946913e-01 -8.824970e-01 -2.668945e+00 176 174 170
4.243629e-01 -8.695995e-01 -2.628115e+00 123 112 111
-2.196387e-01 -8.496792e-01 -2.698160e+00 154 142 131
2.992498e-01 -8.572161e-01 -2.661666e+00 158 156 157
1.604098e-01 -7.719591e-01 -2.594155e+00 152 152 152
7.542317e-02 -7.780747e-01 -2.623059e+00 55 52 54
4.280227e-01 -8.391554e-01 -2.625302e+00 209 195 183
2.407792e-01 -7.736301e-01 -2.601221e+00 96 100 103
5.422257e-01 -8.565370e-01 -2.622474e+00 112 115 120
2.959739e-01 -8.235158e-01 -2.668745e+00 166 173 173
3.523851e-01 -7.840403e-01 -2.613248e+00 32 35 33
-1.451915e-01 -7.702043e-01 -2.673833e+00 226 227 217
3.917273e-01 -7.924871e-01 -2.625614e+00 74 66 72
3.917273e-01 -7.924871e-01 -2.625614e+00 74 66 72
4.224938e-01 -7.981194e-01 -2.626510e+00 171 159 150
3.107551e-01 -8.045131e-01 -2.667240e+00 41 52 58
2.285376e-01 -7.252156e-01 -2.592303e+00 127 127 128
4.772720e-01 -8.036829e-01 -2.634417e+00 173 163 154
1.687436e-01 -7.077084e-01 -2.589846e+00 67 79 90
1.041844e-01 -7.242239e-01 -2.627389e+00 81 86 97
3.388562e-01 -7.784427e-01 -2.666559e+00 198 195 189
5.021822e-01 -7.946823e-01 -2.637105e+00 57 55 62
1.175538e-01 -7.107549e-01 -2.628449e+00 125 126 129
-4.053688e-01 -6.797212e-01 -2.616156e+00 200 200 198
-4.435322e-01 -6.726923e-01 -2.623222e+00 60 64 74
3.524514e-01 -6.730691e-01 -2.639145e+00 115 112 114
5.781835e-01 -6.995372e-01 -2.629370e+00 102 98 69
4.860153e-01 -6.690711e-01 -2.621121e+00 131 129 130
6.482397e-01 -7.110511e-01 -2.622463e+00 22 23 18
4.641471e-01 -6.597123e-01 -2.618200e+00 151 152 141
6.324944e-01 -7.026026e-01 -2.619088e+00 44 46 31
5.101880e-01 -6.650561e-01 -2.624421e+00 179 170 166
8.584876e-01 -8.185079e-01 -2.724190e+00 69 69 58
4.445657e-01 -6.574097e-01 -2.652454e+00 82 80 76
7.892656e-01 -7.792319e-01 -2.742313e+00 187 171 164
7.808479e-01 -7.771758e-01 -2.743613e+00 189 173 157
6.342377e-01 -6.794159e-01 -2.661847e+00 26 27 22
-4.977532e-01 -5.225877e-01 -2.607347e+00 89 93 67
-4.458851e-01 -5.098945e-01 -2.602123e+00 75 46 47
5.064640e-01 -6.053528e-01 -2.624044e+00 150 146 145
9.492567e-01 -7.659111e-01 -2.727541e+00 174 177 166
5.501539e-01 -5.909927e-01 -2.624421e+00 158 149 134
-4.160689e-01 -4.648914e-01 -2.611230e+00 196 202 196
7.512409e-01 -6.711234e-01 -2.732788e+00 72 76 77
9.610564e-01 -7.152481e-01 -2.746649e+00 117 102 95
9.518209e-01 -7.114129e-01 -2.747337e+00 76 66 57
-3.803584e-01 -4.351560e-01 -2.623102e+00 46 52 80
5.194085e-01 -5.311566e-01 -2.624655e+00 40 35 46
3.587981e-01 -5.368078e-01 -2.729654e+00 152 138 112
5.715028e-01 -5.428223e-01 -2.733700e+00 23 24 28
1.021408e+00 -6.491630e-01 -2.743642e+00 193 190 177
-5.518795e-01 -4.003433e-01 -2.692970e+00 88 96 100
8.425717e-01 -5.632730e-01 -2.730248e+00 122 117 77
8.425717e-01 -5.632730e-01 -2.730248e+00 122 117 77
5.097890e-01 -4.948523e-01 -2.735548e+00 60 61 65
-7.326148e-01 -3.695163e-01 -2.770964e+00 57 56 63
4.249385e-01 -4.367614e-01 -2.698082e+00 142 147 151
-5.578498e-01 -3.412624e-01 -2.754961e+00 37 38 40
-2.778850e-01 -3.214845e-01 -2.639858e+00 144 148 149
-4.876588e-01 -3.414987e-01 -2.762220e+00 107 100 88
3.977394e-01 -4.083628e-01 -2.692774e+00 55 63 74
5.035753e-01 -4.337090e-01 -2.720481e+00 177 182 187
-4.099112e-01 -3.145789e-01 -2.719132e+00 132 128 125
-4.127964e-01 -3.082641e-01 -2.717497e+00 124 123 121
-8.105590e-01 -2.317792e-01 -2.779035e+00 44 47 57
-4.476034e-01 -2.488604e-01 -2.723384e+00 118 119 114
-6.959154e-01 -2.206658e-01 -2.783708e+00 130 120 125
4.401359e-01 -2.978177e-01 -2.621029e+00 83 88 94
6.640112e-01 -3.321955e-01 -2.722880e+00 172 161 143
8.736934e-01 -3.529466e-01 -2.729215e+00 240 240 211
6.900026e-01 -3.201584e-01 -2.728749e+00 172 163 148
5.757581e-01 -3.042444e-01 -2.746888e+00 180 169 159
7.136628e-01 -3.108375e-01 -2.734239e+00 136 127 112
8.723772e-01 -3.161358e-01 -2.714167e+00 230 232 218
-4.741157e-01 -1.153885e-01 -2.729090e+00 32 44 35
2.772604e-01 -1.936423e-01 -2.729395e+00 35 40 44
8.821618e-01 -2.353790e-01 -2.743324e+00 208 198 178
8.821559e-01 -2.088311e-01 -2.749512e+00 144 137 118
6.294475e-01 -1.636944e-01 -2.741036e+00 228 225 210
-2.766540e-01 2.388838e-02 -2.764743e+00 191 187 184
6.219337e-01 -1.143833e-01 -2.754585e+00 92 77 84
6.094134e-01 -1.096893e-01 -2.751217e+00 80 71 69
-3.236770e-01 4.968538e-02 -2.750455e+00 80 86 88
-3.442376e-01 7.550434e-02 -2.702152e+00 99 89 84
6.606491e-01 -9.428006e-02 -2.690394e+00 161 140 135
-4.566627e-01 1.525668e-01 -2.712077e+00 200 197 203
-4.358313e-01 1.741809e-01 -2.715975e+00 176 174 188
6.517484e-01 -2.106390e-02 -2.766237e+00 124 115 98
4.759200e-01 -2.952378e-03 -2.756195e+00 176 167 154
4.799358e-01 -1.990792e-03 -2.756400e+00 84 86 60
-4.254054e-01 1.798559e-01 -2.715180e+00 182 179 185
3.535168e-01 3.789621e-02 -2.759004e+00 133 136 90
6.178888e-01 1.766275e-02 -2.765336e+00 160 149 143
7.046961e-01 1.139624e-02 -2.764923e+00 194 185 170
4.268000e-01 3.923892e-02 -2.763581e+00 49 54 53
4.229902e-01 4.402374e-02 -2.760316e+00 43 47 50
4.272320e-01 4.459293e-02 -2.763964e+00 175 177 167
3.031261e-01 7.389894e-02 -2.756978e+00 95 102 67
3.373214e-01 8.519236e-02 -2.763443e+00 50 51 45
3.788205e-01 1.308667e-01 -2.770122e+00 53 58 42
5.609703e-01 1.831874e-01 -2.713562e+00 135 172 184
-1.896746e-01 4.089793e-01 -2.781781e+00 171 161 152
-1.768311e-01 4.182674e-01 -2.779891e+00 173 160 151
4.595627e-01 -9.462306e-01 -2.628916e+00 80 52 72
1.239551e-01 -8.227060e-01 -2.583328e+00 216 216 202
1.293992e-01 -8.194510e-01 -2.583306e+00 54 53 83
-1.815130e-02 -8.599772e-01 -2.640090e+00 36 41 35
5.019678e-01 -8.946465e-01 -2.589558e+00 205 217 212
3.521782e-01 -8.787247e-01 -2.618770e+00 64 48 51
3.900467e-01 -8.855501e-01 -2.625165e+00 193 193 183
2.190402e-01 -8.267384e-01 -2.599956e+00 106 106 110
5.406123e-01 -8.886616e-01 -2.598841e+00 156 157 166
4.334336e-01 -8.836473e-01 -2.639154e+00 179 169 167
5.400928e-01 -8.795932e-01 -2.599060e+00 108 100 114
1.841948e-01 -7.792370e-01 -2.587224e+00 146 141 145
3.394656e-01 -8.218665e-01 -2.628389e+00 64 52 59
5.912703e-02 -7.700007e-01 -2.618010e+00 197 178 167
9.342516e-02 -7.769572e-01 -2.625975e+00 182 167 159
7.498228e-02 -7.613659e-01 -2.623022e+00 43 44 52
-3.128482e-01 -8.146154e-01 -2.703291e+00 24 28 29
4.782289e-01 -8.196091e-01 -2.633713e+00 182 173 163
5.430355e-01 -8.346873e-01 -2.632360e+00 172 128 104
3.147106e-02 -7.903111e-01 -2.699367e+00 137 133 119
4.099601e-01 -7.860658e-01 -2.626113e+00 47 43 62
4.871084e-01 -7.970563e-01 -2.632174e+00 39 29 42
-1.771565e-02 -7.520931e-01 -2.699757e+00 136 128 115
5.065784e-01 -7.911207e-01 -2.640700e+00 206 197 191
3.692082e-01 -7.387701e-01 -2.620504e+00 145 135 127
1.081919e-01 -7.022643e-01 -2.625884e+00 130 130 132
5.382456e-01 -7.740432e-01 -2.638815e+00 205 170 148
4.322136e-01 -7.096148e-01 -2.650837e+00 43 36 44
3.811355e-01 -6.940873e-01 -2.647181e+00 171 164 172
8.334360e-01 -8.386534e-01 -2.712032e+00 139 143 142
4.642378e-01 -6.689333e-01 -2.617778e+00 153 152 146
5.170430e-01 -6.832650e-01 -2.625559e+00 130 114 104
4.820216e-01 -6.566675e-01 -2.619538e+00 153 143 143
5.049675e-01 -6.636780e-01 -2.622736e+00 140 136 136
8.498566e-01 -8.198579e-01 -2.727335e+00 138 137 116
8.032396e-01 -8.057411e-01 -2.737319e+00 122 115 105
4.837323e-01 -6.438190e-01 -2.621797e+00 142 138 135
4.655298e-01 -6.372215e-01 -2.619625e+00 174 171 165
7.953451e-01 -7.779163e-01 -2.739667e+00 171 157 147
9.602491e-01 -8.175886e-01 -2.734698e+00 135 118 118
-5.161743e-01 -5.341596e-01 -2.609672e+00 31 36 59
7.964874e-01 -7.271647e-01 -2.703078e+00 165 154 151
1.352643e-01 -5.516612e-01 -2.710586e+00 186 179 169
2.999733e-01 -5.768666e-01 -2.718817e+00 111 108 81
5.555580e-01 -5.807693e-01 -2.630182e+00 46 42 47
5.506032e-01 -5.737846e-01 -2.625565e+00 62 57 57
-4.050263e-01 -4.686742e-01 -2.624758e+00 180 173 183
-3.420222e-01 -4.575417e-01 -2.614051e+00 178 179 173
7.261357e-01 -6.605602e-01 -2.741887e+00 68 65 83
9.844924e-01 -7.195750e-01 -2.748240e+00 122 121 91
5.362224e-01 -5.494000e-01 -2.630303e+00 146 145 144
-1.557257e-01 -4.045917e-01 -2.512650e+00 25 32 40
-3.640372e-01 -4.377913e-01 -2.625640e+00 155 152 147
1.001649e+00 -6.791175e-01 -2.737469e+00 121 124 92
-5.801469e-01 -3.833457e-01 -2.682872e+00 84 91 101
-5.801469e-01 -3.833457e-01 -2.682872e+00 84 91 101
-6.208813e-01 -3.447917e-01 -2.768388e+00 162 153 146
-4.990612e-01 -3.389189e-01 -2.762756e+00 58 63 49
-7.213449e-01 -3.289515e-01 -2.777544e+00 153 140 131
-5.813883e-01 -2.659230e-01 -2.772709e+00 156 151 132
-5.813883e-01 -2.659230e-01 -2.772709e+00 156 151 132
-5.813883e-01 -2.659230e-01 -2.772709e+00 156 151 132
-3.700276e-01 -2.678575e-01 -2.719884e+00 119 117 114
-3.934536e-01 -2.402519e-01 -2.725198e+00 143 145 145
-5.077010e-01 -2.188177e-01 -2.766958e+00 30 28 44
-3.855859e-01 -2.056737e-01 -2.728003e+00 129 130 129
-2.860014e-01 -1.800607e-01 -2.744029e+00 188 188 186
6.865672e-01 -3.178311e-01 -2.724915e+00 178 167 151
8.683886e-01 -3.183203e-01 -2.727423e+00 237 234 216
7.431882e-01 -2.844358e-01 -2.738134e+00 184 175 158
-4.121828e-01 -1.077359e-01 -2.738023e+00 18 29 26
-4.203815e-01 -1.022262e-01 -2.722433e+00 105 117 102
7.469511e-01 -2.632633e-01 -2.740921e+00 44 51 37
-1.867692e-01 -1.171906e-01 -2.751472e+00 191 183 172
-3.731907e-01 -6.876209e-02 -2.722192e+00 91 88 92
-3.072464e-01 -7.962337e-02 -2.748901e+00 194 193 189
-1.698684e-01 -9.679416e-02 -2.748946e+00 188 182 170
-3.193528e-01 3.261161e-03 -2.760354e+00 48 52 61
4.599930e-01 -8.107641e-02 -2.747268e+00 162 160 139
-3.363224e-01 6.691981e-02 -2.745785e+00 42 40 48
-3.325377e-01 7.694471e-02 -2.730880e+00 36 35 41
-3.253813e-01 8.237942e-02 -2.730658e+00 36 37 42
3.504950e-01 -3.074160e-02 -2.709529e+00 38 41 34
3.935941e-01 5.161867e-03 -2.752294e+00 126 133 99
6.583014e-01 -1.593398e-02 -2.763109e+00 144 136 125
3.272552e-01 4.822349e-02 -2.753707e+00 28 32 25
6.540571e-01 3.632958e-02 -2.764584e+00 66 65 73
3.259403e-01 1.324248e-01 -2.764900e+00 137 137 99
3.293918e-01 1.414852e-01 -2.765745e+00 142 139 103
3.631654e-01 1.408899e-01 -2.771505e+00 125 108 71
3.491224e-01 1.526825e-01 -2.768765e+00 34 36 27
5.552597e-01 1.829078e-01 -2.737215e+00 120 117 130
4.818896e-01 1.993873e-01 -2.706461e+00 250 240 246
2.606935e-01 -9.207626e-01 -2.676523e+00 18 25 35
-2.646699e-01 -8.830545e-01 -2.681690e+00 46 54 60
4.942113e-01 -8.870455e-01 -2.592325e+00 192 174 168
-2.226755e-01 -8.748657e-01 -2.695354e+00 33 30 40
4.697268e-01 -8.879865e-01 -2.631001e+00 197 202 209
3.143709e-01 -8.616970e-01 -2.659047e+00 158 157 157
8.179286e-02 -7.967403e-01 -2.625767e+00 116 100 71
7.107524e-02 -7.788623e-01 -2.618698e+00 140 204 228
2.982994e-01 -8.543712e-01 -2.673131e+00 147 143 142
3.135684e-01 -8.448342e-01 -2.657195e+00 159 161 161
3.135684e-01 -8.448342e-01 -2.657195e+00 159 161 161
4.953545e-01 -8.602521e-01 -2.623652e+00 126 123 131
4.822229e-01 -8.586879e-01 -2.627263e+00 154 145 141
4.731608e-01 -8.502228e-01 -2.621489e+00 47 43 62
-9.000979e-02 -7.924238e-01 -2.674484e+00 43 41 43
4.045751e-01 -7.936066e-01 -2.620223e+00 201 184 167
4.005078e-01 -7.894094e-01 -2.625698e+00 75 66 86
1.780935e-01 -7.200454e-01 -2.590461e+00 127 125 130
4.518402e-01 -7.932507e-01 -2.630815e+00 42 39 51
4.206527e-01 -7.667480e-01 -2.608795e+00 28 28 28
-1.039780e-01 -7.615079e-01 -2.706273e+00 161 153 145
3.154966e-02 -7.542734e-01 -2.699319e+00 133 121 111
-4.178156e-01 -6.837695e-01 -2.621604e+00 47 51 75
-1.304431e-01 -6.347877e-01 -2.599743e+00 66 73 85
4.056191e-01 -7.120112e-01 -2.646474e+00 24 22 28
-3.768768e-01 -6.103934e-01 -2.620097e+00 177 173 173
8.016343e-01 -8.454487e-01 -2.756326e+00 165 147 142
6.070632e-01 -7.040327e-01 -2.622792e+00 89 90 71
8.043477e-01 -8.183473e-01 -2.733777e+00 109 88 95
4.587620e-01 -6.477216e-01 -2.614063e+00 40 40 51
4.587620e-01 -6.477216e-01 -2.614063e+00 40 40 51
8.632630e-01 -8.122037e-01 -2.734782e+00 47 43 42
9.092321e-01 -7.868590e-01 -2.718076e+00 132 125 131
9.344369e-01 -7.728311e-01 -2.723837e+00 95 89 109
8.647860e-01 -7.514880e-01 -2.723007e+00 123 111 101
4.647321e-01 -5.846375e-01 -2.619882e+00 141 137 138
9.094327e-01 -7.521290e-01 -2.736178e+00 147 135 111
5.208702e-01 -5.752048e-01 -2.627744e+00 148 144 146
-3.391466e-01 -4.561412e-01 -2.622759e+00 116 121 122
-3.955174e-01 -4.181493e-01 -2.628895e+00 174 167 170
9.109879e-01 -6.242205e-01 -2.713022e+00 155 128 142
-3.797360e-01 -3.965053e-01 -2.623687e+00 52 61 68
-5.615051e-01 -3.927656e-01 -2.686278e+00 62 69 80
9.492112e-01 -5.923836e-01 -2.720925e+00 186 196 197
4.452487e-01 -4.068286e-01 -2.711065e+00 114 115 114
-8.001214e-01 -2.373982e-01 -2.780527e+00 25 28 35
3.325094e-01 -2.654047e-01 -2.645018e+00 184 175 166
-2.112320e-01 -1.146048e-01 -2.744454e+00 203 200 195
6.216912e-01 -1.638029e-01 -2.737593e+00 130 125 120
5.879128e-01 -2.306495e-02 -2.761348e+00 201 194 184
4.525514e-01 1.453084e-02 -2.758843e+00 175 172 168
6.149451e-01 7.927842e-03 -2.764369e+00 191 185 173
6.149451e-01 7.927842e-03 -2.764369e+00 191 185 173
6.220426e-01 1.394891e-02 -2.766343e+00 202 193 187
6.278275e-01 1.789579e-02 -2.765742e+00 161 153 151
6.526072e-01 2.786467e-02 -2.767356e+00 53 53 57
4.896769e-01 1.941522e-01 -2.692667e+00 250 245 252
8.392750e-02 2.857715e-01 -2.752822e+00 138 137 134
4.832386e-02 3.273666e-01 -2.784381e+00 144 132 116
4.937263e-01 2.070546e-01 -2.675222e+00 125 125 128
1.694461e-01 -8.234235e-01 -2.586668e+00 171 171 173
-2.462814e-01 -9.016106e-01 -2.689512e+00 55 65 67
2.509903e-01 -9.108740e-01 -2.675226e+00 86 75 79
1.709304e-01 -8.140074e-01 -2.588537e+00 38 42 53
1.672200e-01 -8.038958e-01 -2.590008e+00 136 134 139
1.672200e-01 -8.038958e-01 -2.590008e+00 136 134 139
5.076262e-01 -8.728396e-01 -2.593532e+00 141 116 112
3.908692e-01 -8.488495e-01 -2.620025e+00 36 33 40
3.908692e-01 -8.488495e-01 -2.620025e+00 36 33 40
3.908692e-01 -8.488495e-01 -2.620025e+00 36 33 40
5.356642e-01 -8.627046e-01 -2.594056e+00 184 183 180
5.089371e-01 -8.616658e-01 -2.601322e+00 131 109 113
1.394765e-01 -7.772501e-01 -2.601007e+00 119 116 112
4.148113e-01 -8.366926e-01 -2.628054e+00 127 114 99
3.614463e-01 -8.181468e-01 -2.621259e+00 31 31 33
9.547772e-02 -7.799928e-01 -2.631663e+00 180 169 164
8.245749e-02 -7.605154e-01 -2.625653e+00 178 171 161
1.809933e-01 -7.367278e-01 -2.597233e+00 151 149 150
4.645591e-01 -8.170128e-01 -2.628272e+00 172 163 154
3.694891e-01 -7.741390e-01 -2.617231e+00 169 144 128
4.403219e-01 -7.946797e-01 -2.628899e+00 26 25 33
-4.019450e-01 -6.850833e-01 -2.626182e+00 49 48 58
-3.602128e-01 -6.068726e-01 -2.613254e+00 195 195 189
-4.118396e-01 -5.403255e-01 -2.599318e+00 179 180 175
-5.014195e-01 -5.311803e-01 -2.607920e+00 204 203 196
4.317503e-01 -5.805464e-01 -2.611551e+00 38 37 48
4.698885e-01 -5.710081e-01 -2.620043e+00 181 180 176
9.547078e-01 -7.432245e-01 -2.751456e+00 154 140 121
8.845112e-01 -6.963078e-01 -2.725875e+00 76 71 60
7.430034e-01 -6.603967e-01 -2.745537e+00 64 63 68
-3.223173e-01 -4.282370e-01 -2.631274e+00 60 69 78
7.404184e-01 -6.079433e-01 -2.744850e+00 181 165 149
3.310924e-01 -5.161905e-01 -2.720211e+00 163 146 120
7.169220e-01 -5.537624e-01 -2.715743e+00 253 247 236
-5.803380e-01 -3.810731e-01 -2.673735e+00 79 88 97
4.318795e-01 -4.625144e-01 -2.700263e+00 180 177 171
-7.708263e-01 -3.396709e-01 -2.783210e+00 159 149 137
-5.897014e-01 -3.281168e-01 -2.765468e+00 65 55 51
-4.283224e-01 -2.336859e-01 -2.728043e+00 67 94 79
-3.885257e-01 -2.255757e-01 -2.726263e+00 163 162 158
-5.682302e-01 -2.155802e-01 -2.777850e+00 74 70 50
6.597895e-01 -3.341700e-01 -2.712368e+00 166 158 139
-4.279533e-01 -1.118357e-01 -2.729354e+00 28 32 35
1.945164e-01 -1.606654e-01 -2.610461e+00 140 152 159
8.581191e-01 -2.203668e-01 -2.737962e+00 126 125 94
-4.047459e-01 -1.266661e-02 -2.693532e+00 104 88 90
-2.827378e-01 7.085170e-02 -2.760375e+00 113 129 115
4.258726e-01 2.895821e-02 -2.756852e+00 119 120 108
3.430238e-01 9.226657e-02 -2.764809e+00 149 145 108
7.156374e-01 6.396348e-02 -2.752888e+00 36 38 36
5.210564e-01 1.476132e-01 -2.744604e+00 53 144 196
3.235386e-01 1.617778e-01 -2.697720e+00 128 141 124
2.709706e-01 1.778389e-01 -2.707901e+00 35 41 37
5.517422e-01 1.801719e-01 -2.744104e+00 29 43 73
2.490025e-01 -9.258470e-01 -2.676378e+00 134 160 180
1.414402e-01 -8.173184e-01 -2.580271e+00 183 187 194
-2.043844e-01 -9.026688e-01 -2.693282e+00 33 38 44
3.643999e-01 -8.650048e-01 -2.618140e+00 155 123 107
9.061244e-02 -8.148818e-01 -2.624328e+00 170 162 150
3.745215e-01 -8.581048e-01 -2.624448e+00 28 31 38
3.214499e-01 -8.756678e-01 -2.662754e+00 122 117 114
3.638562e-01 -8.455114e-01 -2.620649e+00 158 135 119
4.876504e-01 -8.570703e-01 -2.598220e+00 135 126 122
2.114146e-01 -7.871547e-01 -2.596236e+00 115 114 120
5.297089e-01 -8.626131e-01 -2.602675e+00 130 110 109
5.297089e-01 -8.626131e-01 -2.602675e+00 130 110 109
4.908676e-01 -8.549630e-01 -2.629648e+00 62 53 61
3.187337e-01 -8.067581e-01 -2.672991e+00 166 167 162
1.805640e-01 -7.233496e-01 -2.595417e+00 126 126 128
4.030533e-01 -7.657370e-01 -2.627712e+00 138 130 119
4.557740e-01 -7.786747e-01 -2.630496e+00 183 169 165
2.795502e-01 -7.022733e-01 -2.603398e+00 118 116 122
-4.028367e-01 -6.856105e-01 -2.627308e+00 49 47 57
-2.890481e-01 -5.964984e-01 -2.586215e+00 27 33 47
8.125238e-01 -8.399852e-01 -2.725396e+00 151 132 126
8.421411e-01 -8.333295e-01 -2.715317e+00 46 41 39
-2.937704e-01 -5.718209e-01 -2.586652e+00 29 36 51
6.190088e-01 -7.009292e-01 -2.622067e+00 24 26 26
6.190088e-01 -7.009292e-01 -2.622067e+00 24 26 26
4.115957e-01 -6.642591e-01 -2.649707e+00 127 125 126
6.432553e-01 -7.018369e-01 -2.633742e+00 25 27 26
7.910197e-01 -7.968848e-01 -2.740442e+00 191 179 167
-4.444498e-01 -5.266827e-01 -2.596099e+00 35 37 48
5.040836e-01 -6.217233e-01 -2.625208e+00 171 167 167
5.216212e-01 -6.221858e-01 -2.636818e+00 131 130 136
4.914299e-01 -6.061109e-01 -2.619078e+00 163 159 158
4.821736e-01 -5.838093e-01 -2.621249e+00 136 135 140
-1.517676e-01 -4.126807e-01 -2.511528e+00 172 180 185
-1.517676e-01 -4.126807e-01 -2.511528e+00 172 180 185
7.715718e-01 -5.968404e-01 -2.715584e+00 144 133 105
7.046500e-01 -5.490146e-01 -2.749054e+00 180 168 154
9.255476e-01 -5.811245e-01 -2.740414e+00 59 60 64
-7.422588e-01 -3.455286e-01 -2.778839e+00 149 136 127
-7.422588e-01 -3.455286e-01 -2.778839e+00 149 136 127
-5.623043e-01 -1.982802e-01 -2.779773e+00 119 117 95
5.766271e-01 -2.973074e-01 -2.749155e+00 172 162 149
9.081451e-01 -2.797841e-01 -2.688611e+00 215 199 175
-4.346877e-01 4.795391e-03 -2.688365e+00 23 23 30
-4.600406e-01 3.418448e-02 -2.689577e+00 25 27 40
-3.071837e-01 2.576896e-01 -2.796916e+00 33 34 39
4.509625e-01 1.923226e-01 -2.768887e+00 203 203 193
1.085987e-01 -8.255844e-01 -2.627379e+00 192 176 162
5.181247e-01 -8.757252e-01 -2.593421e+00 194 194 195
1.049709e-01 -8.030934e-01 -2.627530e+00 78 81 84
-3.541321e-01 -8.426222e-01 -2.693587e+00 38 49 51
3.968979e-01 -8.027490e-01 -2.625053e+00 156 144 128
9.657680e-02 -7.535652e-01 -2.624185e+00 116 103 92
7.708728e-01 -9.807275e-01 -2.733602e+00 161 157 158
4.021764e-01 -7.319191e-01 -2.619710e+00 29 24 31
-4.415227e-01 -6.178651e-01 -2.620727e+00 53 58 78
4.992742e-01 -6.314583e-01 -2.623531e+00 140 135 139
-4.118563e-01 -4.748982e-01 -2.618377e+00 27 31 42
7.471863e-01 -6.146997e-01 -2.713406e+00 129 120 116
7.415829e-01 -5.942586e-01 -2.730579e+00 253 246 235
-2.728675e-01 -3.099846e-01 -2.640509e+00 155 155 155
-3.266481e-01 -2.626687e-01 -2.723919e+00 49 45 44
-2.999998e-01 -1.923351e-01 -2.742286e+00 179 175 172
-6.231568e-01 -1.433386e-01 -2.788322e+00 130 122 105
-4.084273e-01 -9.698816e-02 -2.729300e+00 20 29 28
1.928609e-01 -1.496549e-01 -2.615440e+00 30 37 45
4.161828e-01 -1.213149e-01 -2.751028e+00 184 175 168
-3.577430e-01 5.291941e-02 -2.694310e+00 33 33 33
-3.299850e-01 8.479519e-02 -2.701965e+00 133 141 152
5.143824e-01 2.582353e-02 -2.753023e+00 146 146 104
2.367216e-01 6.779446e-02 -2.722587e+00 120 129 86
-3.266676e-01 2.434228e-01 -2.792386e+00 38 39 41
-3.440472e-01 3.005633e-01 -2.778891e+00 36 34 38
5.661374e-01 1.886941e-01 -2.712666e+00 71 130 167
3.582575e-01 -7.781913e-01 -2.615254e+00 27 27 39
