ply
format ascii 1.0
element face 0
property list uchar int vertex_indices
element vertex 933
property float x
property float y
property float z
property uchar diffuse_red
property uchar diffuse_green
property uchar diffuse_blue
end_header
5.593372e-01 6.993470e-02 -2.644880e+00 191 182 182
3.292234e-01 1.686177e-02 -2.750904e+00 101 104 67
6.963999e-01 8.721540e-03 -2.785710e+00 151 144 130
1.474240e-01 6.425858e-03 -2.730571e+00 29 29 37
3.118322e-01 9.827331e-03 -2.745031e+00 22 23 17
9.736410e-01 -6.232130e-03 -2.766758e+00 154 167 147
1.548760e-01 1.831438e-02 -2.655288e+00 186 168 168
3.729969e-01 -8.772641e-03 -2.754677e+00 109 108 80
8.931598e-03 1.649841e-02 -2.607344e+00 50 73 103
9.390886e-02 -1.343792e-02 -2.620402e+00 224 210 199
1.156266e-01 -2.181383e-02 -2.623548e+00 168 176 196
2.211217e-01 -7.335694e-02 -2.731996e+00 23 26 33
3.691700e-01 -5.853431e-02 -2.728827e+00 60 60 55
3.928761e-01 -8.460569e-02 -2.753482e+00 161 161 158
5.953891e-01 -9.272597e-02 -2.762720e+00 81 73 64
4.178527e-01 -1.067783e-01 -2.750615e+00 161 158 160
5.696268e-01 -1.161030e-01 -2.751905e+00 43 41 45
6.515867e-01 -9.658763e-02 -2.705784e+00 155 121 119
9.401358e-01 -1.373041e-01 -2.733582e+00 88 87 85
1.639502e-01 -1.109411e-01 -2.617555e+00 29 34 71
4.069809e-01 -1.573440e-01 -2.745164e+00 159 157 162
2.396200e-01 -1.268132e-01 -2.655184e+00 177 177 172
3.965339e-01 -1.722651e-01 -2.738777e+00 132 132 134
8.477068e-01 -1.503287e-01 -2.717271e+00 25 37 70
1.905590e-01 -1.583475e-01 -2.634955e+00 80 77 82
3.660470e-01 -2.122781e-01 -2.736807e+00 64 63 77
2.378132e-01 -1.676278e-01 -2.638641e+00 27 23 38
6.111584e-01 -2.046265e-01 -2.741050e+00 153 143 134
6.229197e-01 8.442075e-01 -2.916760e+00 30 30 37
2.946132e-01 8.122110e-01 -2.816629e+00 127 119 115
6.904116e-01 8.138446e-01 -2.931434e+00 100 90 68
8.939965e-01 7.550279e-01 -2.878144e+00 32 37 30
2.400737e-01 7.701473e-01 -2.789981e+00 136 132 133
2.689723e-01 7.671660e-01 -2.804203e+00 138 132 134
8.892796e-01 7.496707e-01 -2.881347e+00 117 122 90
6.998723e-01 7.013888e-01 -2.797237e+00 244 241 230
2.057553e-01 7.615856e-01 -2.783242e+00 135 131 130
7.074096e-01 6.858954e-01 -2.794905e+00 91 96 89
2.423524e-01 7.246593e-01 -2.788063e+00 138 132 137
7.642291e-01 7.131208e-01 -2.910423e+00 25 28 35
1.548858e-01 7.244308e-01 -2.802740e+00 243 242 232
1.735291e-01 7.023991e-01 -2.805155e+00 162 159 154
-3.690447e-01 8.068428e-01 -2.708909e+00 137 130 117
-1.445192e-02 7.200265e-01 -2.806234e+00 98 91 111
8.516331e-01 5.994038e-01 -2.747663e+00 174 187 206
8.068300e-01 6.052384e-01 -2.823374e+00 43 55 71
-3.682052e-01 7.663286e-01 -2.756588e+00 64 79 79
-2.076547e-01 7.339622e-01 -2.851662e+00 40 45 59
1.133147e-01 6.660557e-01 -2.866381e+00 198 197 177
-1.193065e-01 6.956151e-01 -2.819767e+00 23 23 24
-3.362293e-01 7.128165e-01 -2.721416e+00 215 220 199
-3.362293e-01 7.128165e-01 -2.721416e+00 215 220 199
1.051542e+00 5.869636e-01 -2.930029e+00 212 208 198
1.051542e+00 5.869636e-01 -2.930029e+00 212 208 198
1.044257e+00 5.840679e-01 -2.925205e+00 44 47 32
7.806395e-02 6.183885e-01 -2.859824e+00 172 163 154
9.320182e-02 6.050827e-01 -2.852383e+00 196 186 178
-6.928313e-02 6.322190e-01 -2.867475e+00 170 158 170
-2.946979e-01 6.436545e-01 -2.701819e+00 76 95 93
-1.064089e-01 5.852626e-01 -2.856400e+00 19 22 29
1.057167e-01 5.326506e-01 -2.800662e+00 180 175 172
9.810582e-01 4.871922e-01 -2.815814e+00 142 178 205
9.534613e-01 4.798511e-01 -2.835113e+00 174 176 168
-1.863980e-01 5.343580e-01 -2.680514e+00 114 121 69
7.984931e-02 4.981543e-01 -2.789088e+00 114 108 113
1.200322e-01 4.699971e-01 -2.784673e+00 144 140 141
8.850799e-02 4.596338e-01 -2.780378e+00 196 194 191
9.622728e-01 4.164102e-01 -2.874500e+00 46 44 40
8.236994e-02 4.431595e-01 -2.776079e+00 158 154 149
1.125124e+00 4.163574e-01 -2.912856e+00 148 144 107
1.070136e+00 3.933931e-01 -2.895222e+00 186 178 157
1.339528e+00 3.760858e-01 -2.874681e+00 193 189 189
9.148087e-01 3.367767e-01 -2.843531e+00 93 83 62
1.031723e+00 3.359339e-01 -2.872533e+00 189 178 163
6.965765e-02 3.321415e-01 -2.748367e+00 57 45 63
7.870409e-01 2.624840e-01 -2.828567e+00 48 53 64
9.820223e-01 2.497335e-01 -2.846580e+00 187 181 169
1.160841e+00 2.085996e-01 -2.746536e+00 165 170 176
7.017992e-01 2.021248e-01 -2.797761e+00 140 132 120
-6.169743e-02 2.392145e-01 -2.606104e+00 153 152 149
3.920322e-01 2.004971e-01 -2.789766e+00 63 73 88
1.265138e+00 1.742411e-01 -2.736554e+00 86 92 117
-5.521118e-02 1.807753e-01 -2.591597e+00 170 168 171
9.460965e-01 1.305254e-01 -2.824933e+00 173 169 158
9.667037e-01 1.062238e-01 -2.808812e+00 158 152 113
4.289654e-01 1.089093e-01 -2.777058e+00 179 174 170
4.164408e-01 1.036847e-01 -2.772883e+00 76 69 82
8.351727e-01 9.367879e-02 -2.804727e+00 50 55 60
9.247077e-01 8.348798e-02 -2.817852e+00 178 175 168
9.422509e-01 8.258843e-02 -2.808467e+00 188 180 169
1.038407e+00 5.272502e-02 -2.818106e+00 154 152 117
1.003335e+00 4.166336e-02 -2.809318e+00 169 155 122
1.292151e+00 3.211964e-02 -2.709964e+00 201 197 194
1.122414e+00 1.255287e-02 -2.790263e+00 192 197 198
7.749085e-01 3.195104e-02 -2.737928e+00 151 146 138
7.750447e-01 3.276888e-02 -2.737194e+00 151 146 138
1.210162e+00 9.966393e-03 -2.713315e+00 190 191 187
9.561164e-01 -1.791909e-02 -2.785099e+00 39 42 50
3.277680e-01 3.434792e-03 -2.712498e+00 28 34 27
3.881742e-01 -1.435277e-02 -2.741328e+00 76 78 64
6.350154e-01 -5.624677e-02 -2.769107e+00 191 174 154
6.870753e-02 -4.021036e-02 -2.606755e+00 64 69 75
8.592671e-01 -1.519027e-01 -2.723131e+00 107 163 196
1.845199e-01 -1.473249e-01 -2.615122e+00 172 174 187
5.744812e-01 -2.575259e-01 -2.724206e+00 22 21 26
4.771561e-01 -2.921078e-01 -2.708056e+00 120 138 150
6.798084e-01 7.316210e-01 -2.791368e+00 189 177 189
7.592789e-01 7.736308e-01 -2.902609e+00 97 91 87
4.767619e-01 7.386279e-01 -2.827011e+00 30 24 22
2.243566e-01 7.643327e-01 -2.784879e+00 149 145 146
9.052675e-01 7.414783e-01 -2.883854e+00 114 124 89
2.199262e-01 7.608432e-01 -2.788087e+00 140 135 137
4.169590e-01 7.203140e-01 -2.878159e+00 45 27 23
1.352428e-01 7.415957e-01 -2.808156e+00 161 154 145
2.395630e-01 7.173089e-01 -2.812375e+00 147 138 129
3.509686e-02 7.488837e-01 -2.823692e+00 48 48 51
3.455049e-02 7.452996e-01 -2.834930e+00 46 44 49
7.937654e-01 6.374244e-01 -2.831165e+00 68 85 99
8.215055e-01 6.349803e-01 -2.834931e+00 169 168 165
2.998234e-02 7.151101e-01 -2.853091e+00 46 36 38
8.528396e-01 5.955852e-01 -2.746719e+00 38 43 71
-4.160724e-01 7.483825e-01 -2.715587e+00 188 164 176
-1.372063e-01 6.850577e-01 -2.806020e+00 28 31 37
-4.028085e-01 7.058578e-01 -2.720276e+00 21 26 32
1.813486e-01 6.053324e-01 -2.843929e+00 140 135 129
-5.277661e-02 6.397358e-01 -2.868696e+00 180 169 172
1.046185e+00 5.686940e-01 -2.923239e+00 185 183 163
9.542090e-01 5.333950e-01 -2.821970e+00 142 177 198
-3.038103e-01 6.328659e-01 -2.694738e+00 78 97 95
9.907566e-01 5.169109e-01 -2.819797e+00 92 154 190
5.096999e-02 5.403085e-01 -2.797163e+00 161 157 156
-1.703276e-01 5.443900e-01 -2.690951e+00 21 21 21
-1.703276e-01 5.443900e-01 -2.690951e+00 21 21 21
-1.730352e-01 5.405095e-01 -2.687532e+00 81 85 56
-1.748151e-01 5.427220e-01 -2.841489e+00 31 37 49
4.011273e-02 5.020002e-01 -2.787840e+00 175 171 168
9.156270e-02 4.288742e-01 -2.771132e+00 163 159 156
9.454233e-01 3.696161e-01 -2.851826e+00 151 142 114
4.818972e-02 4.016213e-01 -2.764126e+00 185 180 177
1.076572e+00 3.684011e-01 -2.886969e+00 196 188 179
9.965955e-01 1.999730e-01 -2.841576e+00 179 169 163
-9.348714e-02 2.196963e-01 -2.598167e+00 45 50 71
1.784084e-03 1.850974e-01 -2.669209e+00 108 115 127
1.207809e+00 1.320258e-01 -2.769003e+00 201 206 197
1.204587e+00 1.178403e-01 -2.763263e+00 173 172 180
-6.288792e-02 1.597319e-01 -2.586979e+00 152 150 153
8.521045e-01 1.106172e-01 -2.812335e+00 168 165 157
2.154264e-01 1.107433e-01 -2.724191e+00 25 30 34
9.057555e-01 8.900852e-02 -2.813233e+00 179 176 167
2.384483e-01 8.825377e-02 -2.724736e+00 34 35 27
9.622747e-01 5.583034e-02 -2.803423e+00 120 120 96
9.414380e-01 4.700156e-02 -2.811544e+00 205 195 175
9.221632e-01 3.116457e-02 -2.810668e+00 44 51 61
1.272361e-01 5.196438e-02 -2.680761e+00 19 19 29
7.829557e-01 4.866233e-02 -2.740002e+00 142 141 137
9.362804e-01 1.359606e-02 -2.809792e+00 23 31 32
-3.645952e-02 6.923757e-02 -2.566417e+00 112 120 124
3.091662e-01 1.359511e-02 -2.745789e+00 24 25 20
1.010222e+00 -5.803061e-03 -2.798127e+00 35 35 36
1.235756e+00 -1.570541e-03 -2.717873e+00 100 97 104
4.494839e-01 -1.405961e-02 -2.763179e+00 181 178 173
9.696946e-01 -1.846497e-02 -2.751546e+00 131 148 104
3.527324e-01 -1.777084e-02 -2.721274e+00 21 21 21
4.534660e-01 -4.935382e-02 -2.757443e+00 165 158 149
4.305326e-01 -5.829239e-02 -2.756558e+00 166 161 157
4.431540e-01 -9.668479e-02 -2.753334e+00 158 154 145
4.261470e-01 -1.195742e-01 -2.745171e+00 38 34 32
5.939610e-01 -1.167061e-01 -2.754837e+00 50 50 52
2.786334e-01 -1.300052e-01 -2.729430e+00 28 32 36
1.009636e+00 -1.677473e-01 -2.775926e+00 162 152 145
6.253154e-01 -1.432775e-01 -2.752598e+00 158 150 142
8.978943e-01 -1.335816e-01 -2.731604e+00 83 80 70
5.989886e-01 -1.537185e-01 -2.748751e+00 48 50 49
4.269436e-01 -2.469820e-01 -2.716409e+00 14 23 30
3.550942e-01 -2.189091e-01 -2.648909e+00 159 184 188
5.528724e-01 8.139141e-01 -2.867627e+00 83 87 88
7.817955e-01 7.790920e-01 -2.835356e+00 252 251 249
6.947830e-01 7.032590e-01 -2.799706e+00 92 107 109
2.710309e-03 7.762786e-01 -2.795202e+00 54 52 50
1.603158e-02 6.966966e-01 -2.834134e+00 47 46 52
8.870886e-02 6.618312e-01 -2.873628e+00 176 173 164
-3.807665e-01 7.188944e-01 -2.713271e+00 18 29 38
9.501436e-01 5.595917e-01 -2.820293e+00 143 169 188
-2.963141e-01 6.746610e-01 -2.866529e+00 25 28 37
9.604148e-01 5.317146e-01 -2.818725e+00 88 155 195
9.616057e-01 5.322634e-01 -2.820169e+00 88 155 195
-6.161490e-02 6.164607e-01 -2.861624e+00 77 76 86
-1.850996e-01 5.293240e-01 -2.685616e+00 40 41 28
-1.893726e-01 5.116598e-01 -2.696620e+00 108 117 67
1.079610e+00 3.400692e-01 -2.828882e+00 184 154 156
9.997124e-01 2.631231e-01 -2.852828e+00 122 109 106
9.440664e-01 2.544006e-01 -2.836270e+00 135 118 90
9.204556e-01 2.085453e-01 -2.819340e+00 57 55 57
-1.093612e-01 2.035212e-01 -2.585024e+00 24 26 25
1.565560e-02 1.661191e-01 -2.697990e+00 22 22 33
1.003911e+00 1.250113e-01 -2.824268e+00 189 175 140
1.002029e+00 1.258182e-01 -2.819812e+00 189 175 140
-2.649376e-02 1.708348e-01 -2.592345e+00 139 137 140
-5.745785e-02 1.655601e-01 -2.589522e+00 143 138 144
9.554665e-01 9.535145e-02 -2.801510e+00 106 111 79
9.929255e-01 8.703167e-02 -2.815686e+00 166 153 121
9.911321e-01 8.178828e-02 -2.810780e+00 173 162 130
-3.945872e-02 1.083394e-01 -2.583374e+00 143 138 142
9.881223e-01 4.820016e-02 -2.806264e+00 93 94 77
1.224101e+00 2.548145e-02 -2.720137e+00 154 152 151
9.563169e-01 -7.084721e-03 -2.796683e+00 38 44 33
3.892380e-01 -2.498671e-02 -2.736592e+00 19 24 20
3.872102e-01 -2.813081e-02 -2.741906e+00 19 24 20
6.342424e-01 -4.771309e-02 -2.771149e+00 156 148 127
3.792750e-01 -7.004662e-02 -2.752184e+00 145 143 133
4.923993e-01 -5.465103e-02 -2.734902e+00 47 57 37
1.883296e-02 -3.661580e-02 -2.588023e+00 167 154 155
3.768343e-01 -1.247752e-01 -2.750871e+00 47 54 66
1.831093e-01 -1.029752e-01 -2.651062e+00 41 47 59
3.563495e-01 -1.485548e-01 -2.746883e+00 43 53 64
1.499622e-01 -1.147762e-01 -2.614267e+00 33 41 52
1.585666e-01 -1.204335e-01 -2.616647e+00 33 35 45
2.563211e-01 -1.313223e-01 -2.655707e+00 185 184 182
2.043157e-01 -1.337729e-01 -2.639022e+00 39 46 58
3.321180e-01 -2.039310e-01 -2.726794e+00 36 32 43
3.600663e-01 -2.240558e-01 -2.729139e+00 44 45 49
3.918289e-01 -2.582900e-01 -2.733556e+00 21 25 31
3.918289e-01 -2.582900e-01 -2.733556e+00 21 25 31
3.457822e-01 -2.281850e-01 -2.648090e+00 33 31 44
3.443931e-01 -2.455452e-01 -2.652340e+00 33 28 48
7.031396e-01 8.160576e-01 -2.911894e+00 157 144 138
6.177351e-01 6.932080e-01 -2.784876e+00 169 168 164
2.571970e-01 7.424307e-01 -2.796101e+00 146 138 136
2.436270e-01 7.169192e-01 -2.850503e+00 103 99 98
8.306305e-01 6.509281e-01 -2.842113e+00 174 173 168
8.149778e-01 6.376172e-01 -2.832676e+00 168 167 163
7.949692e-01 6.110558e-01 -2.825682e+00 52 65 81
2.144736e-01 6.652328e-01 -2.849400e+00 38 35 40
-3.609929e-01 7.889414e-01 -2.888963e+00 18 21 30
2.062931e-01 6.463469e-01 -2.855496e+00 139 129 125
1.059679e+00 6.010031e-01 -2.936036e+00 31 34 30
-8.409904e-02 5.831169e-01 -2.853786e+00 35 39 51
-1.984288e-01 5.700105e-01 -2.848085e+00 34 36 48
-1.995207e-01 5.107934e-01 -2.694088e+00 35 36 31
1.259978e-01 4.460458e-01 -2.782821e+00 158 154 151
9.984934e-01 2.536147e-01 -2.852372e+00 135 128 117
1.266166e+00 1.976810e-01 -2.762020e+00 212 216 214
9.734274e-01 1.782315e-01 -2.829944e+00 161 154 144
3.323164e-02 1.619388e-01 -2.646677e+00 33 36 43
6.661670e-01 1.497247e-01 -2.624478e+00 203 191 171
9.284429e-01 4.490876e-02 -2.815529e+00 170 162 159
1.076773e+00 3.371596e-02 -2.818576e+00 198 189 137
-3.688544e-02 7.183112e-02 -2.575493e+00 24 22 28
1.593463e-01 -7.657571e-04 -2.734235e+00 26 29 36
3.297897e-02 7.970336e-04 -2.597961e+00 195 195 186
3.686896e-02 -2.015382e-02 -2.589922e+00 75 90 68
2.492206e-01 -1.594892e-01 -2.646145e+00 37 39 51
4.653945e-01 7.852959e-01 -2.781996e+00 197 186 166
8.005589e-01 6.256180e-01 -2.830863e+00 54 70 85
8.237611e-02 6.897381e-01 -2.858201e+00 130 127 126
-3.522375e-01 7.430010e-01 -2.726658e+00 79 104 98
-3.491229e-01 7.330676e-01 -2.754822e+00 66 81 84
-3.491229e-01 7.330676e-01 -2.754822e+00 66 81 84
-3.562530e-01 7.370874e-01 -2.779375e+00 27 27 40
-3.480989e-01 7.076964e-01 -2.814704e+00 46 60 61
-3.232267e-01 7.080236e-01 -2.872127e+00 28 31 40
-7.574652e-02 6.231152e-01 -2.862356e+00 184 175 172
7.742241e-02 4.903882e-01 -2.786351e+00 172 168 165
1.088044e+00 3.956385e-01 -2.898776e+00 175 168 158
1.001640e+00 2.156967e-01 -2.839836e+00 198 191 170
9.377053e-01 1.990572e-01 -2.823897e+00 34 38 39
-1.532229e-02 2.175348e-01 -2.637963e+00 100 101 107
2.290282e-02 1.620211e-01 -2.753830e+00 36 43 55
1.216110e+00 1.344208e-01 -2.770951e+00 212 212 209
3.485027e-02 1.478461e-01 -2.686701e+00 19 19 29
2.927541e-01 1.450540e-02 -2.716801e+00 26 29 33
5.723068e-01 3.481821e-02 -2.641625e+00 203 200 193
1.095888e-01 -7.158052e-04 -2.623925e+00 56 51 61
4.369382e-01 -1.180819e-01 -2.722178e+00 190 178 177
2.564774e-01 -1.483090e-01 -2.654726e+00 171 164 158
6.090866e-01 -2.039898e-01 -2.740104e+00 150 141 131
4.487454e-01 -2.618248e-01 -2.709819e+00 24 36 50
2.578464e-01 7.436021e-01 -2.857983e+00 124 120 108
8.111055e-01 6.288117e-01 -2.829660e+00 182 182 177
-3.476666e-01 7.441770e-01 -2.884516e+00 21 24 31
1.613242e-01 5.721396e-01 -2.835715e+00 24 25 29
9.990344e-01 1.970791e-01 -2.836632e+00 159 145 141
7.897659e-01 1.315485e-01 -2.805184e+00 23 28 34
1.887367e-01 1.480563e-01 -2.718426e+00 31 37 36
5.069334e-02 5.688521e-02 -2.598723e+00 53 78 108
5.574442e-01 4.881958e-02 -2.628964e+00 180 178 179
5.720559e-02 2.524843e-03 -2.609117e+00 29 31 40
7.896819e-01 8.409897e-03 -2.678946e+00 167 125 113
2.208183e-01 -4.917757e-02 -2.746077e+00 26 30 41
3.759705e-02 -7.431057e-03 -2.595224e+00 20 23 35
3.932396e-01 -1.068461e-01 -2.751720e+00 194 184 174
4.628474e-01 -1.240232e-01 -2.731276e+00 181 167 157
1.694252e-01 -1.026079e-01 -2.619406e+00 129 134 138
7.493180e-01 7.771407e-01 -2.901841e+00 59 57 55
2.644976e-01 7.547077e-01 -2.814381e+00 141 133 121
9.890360e-02 6.689155e-01 -2.872100e+00 191 183 180
-3.778932e-01 7.234684e-01 -2.715847e+00 21 36 43
1.150032e+00 5.264963e-02 -2.753161e+00 116 121 127
1.285190e-01 5.087953e-02 -2.645922e+00 170 130 130
1.283818e-01 -1.419959e-02 -2.624126e+00 156 166 176
9.185800e-01 -8.741320e-02 -2.739188e+00 24 32 34
2.357659e-01 -1.130084e-01 -2.657287e+00 69 76 92
9.240499e-01 -1.398005e-01 -2.727935e+00 27 35 35
1.853695e-01 -1.359995e-01 -2.615965e+00 155 162 169
7.003828e-01 -1.230131e-01 -2.641755e+00 46 36 43
7.003828e-01 -1.230131e-01 -2.641755e+00 46 36 43
5.638053e-03 7.631113e-01 -2.795783e+00 57 42 49
-1.098641e-01 5.980819e-01 -2.855778e+00 20 21 26
1.038372e+00 3.336979e-01 -2.866336e+00 141 134 111
3.942068e-01 -2.890808e-02 -2.764289e+00 39 42 48
8.013597e-01 -6.509370e-02 -2.669673e+00 66 79 96
9.325158e-01 -1.315804e-01 -2.744836e+00 147 152 148
3.354014e-01 -2.119062e-01 -2.722408e+00 42 43 47
-5.022521e-02 6.295533e-01 -2.868509e+00 170 161 154
-6.959666e-02 4.020437e-01 -2.794486e+00 169 164 164
4.460222e-01 -1.228612e-01 -2.740102e+00 23 22 23
7.696678e-01 7.760053e-01 -2.866101e+00 248 247 248
-5.046552e-02 6.567113e-01 -2.843979e+00 47 51 62
1.007169e+00 1.864668e-01 -2.831951e+00 58 52 42
3.957994e-01 1.155462e-01 -2.754131e+00 111 112 104
1.317393e-01 3.742284e-02 -2.637451e+00 187 144 138
9.472943e-01 -1.544736e-01 -2.740420e+00 23 24 29
1.697495e-01 5.468990e-01 -2.819762e+00 39 39 47
9.327861e-01 2.865885e-02 -2.801675e+00 26 30 33
3.482161e-01 -4.757164e-03 -2.740011e+00 19 21 20
4.334493e-01 7.346324e-01 -2.837631e+00 110 105 94
5.727707e-02 6.929023e-01 -2.831999e+00 37 36 44
8.943843e-01 9.387915e-02 -2.817990e+00 168 165 158
3.448476e-01 -2.161815e-01 -2.661536e+00 112 88 86
2.680646e-01 -2.622678e-01 -2.733761e+00 168 152 139
2.079253e-01 -1.201625e-01 -2.636768e+00 123 133 176
2.079253e-01 -1.201625e-01 -2.636768e+00 123 133 176
7.676462e-01 -1.578169e-01 -2.608544e+00 79 89 95
5.175147e-02 -2.895480e-02 -2.588580e+00 67 62 51
3.840186e-01 -2.022996e-01 -2.744451e+00 144 142 152
6.806337e-01 -1.311645e-01 -2.639147e+00 194 151 142
4.339533e-01 -8.364595e-02 -2.758122e+00 45 39 43
8.283151e-02 8.423648e-02 -2.687615e+00 37 23 35
8.353186e-01 3.538446e-02 -2.729143e+00 33 41 43
1.321105e-02 1.620756e-01 -2.741796e+00 18 23 29
4.091915e-01 1.439156e-01 -2.780235e+00 144 136 128
5.008224e-01 2.621641e-01 -2.682200e+00 173 173 171
1.011160e+00 1.067272e-01 -2.814953e+00 83 64 53
1.011160e+00 1.067272e-01 -2.814953e+00 83 64 53
1.032319e-01 2.982498e-01 -2.749340e+00 43 42 42
4.244215e-01 2.411646e-01 -2.786574e+00 182 177 182
4.861196e-01 2.792133e-01 -2.689880e+00 133 131 133
3.973647e-01 2.570338e-01 -2.786614e+00 195 191 192
2.088508e-01 2.902021e-01 -2.787457e+00 88 101 72
4.894263e-01 2.916971e-01 -2.728267e+00 58 45 37
1.018272e-01 3.354465e-01 -2.756562e+00 22 20 21
3.142789e-01 2.930219e-01 -2.795777e+00 27 24 18
3.198181e-01 2.958086e-01 -2.792834e+00 23 19 24
1.841490e-01 3.318775e-01 -2.767097e+00 24 25 31
1.015014e+00 1.728706e-01 -2.821083e+00 94 65 59
1.399675e-01 3.409688e-01 -2.762899e+00 32 35 45
1.022299e+00 1.803499e-01 -2.811043e+00 80 78 101
9.124305e-01 2.029852e-01 -2.819812e+00 43 35 30
4.848117e-01 3.136537e-01 -2.730398e+00 174 168 149
1.039229e+00 1.991137e-01 -2.781513e+00 231 230 236
1.690714e-01 3.599199e-01 -2.772268e+00 154 155 159
5.394241e-01 3.370346e-01 -2.710800e+00 117 116 117
2.998603e-01 3.594258e-01 -2.776081e+00 173 186 195
-1.284567e-01 4.171418e-01 -2.785523e+00 202 194 196
7.173762e-02 4.028214e-01 -2.766461e+00 179 175 174
1.590098e-01 3.968991e-01 -2.771591e+00 174 171 164
4.551830e-01 3.452066e-01 -2.808913e+00 92 87 89
5.834100e-01 3.536894e-01 -2.720804e+00 130 131 131
1.583381e-01 4.026292e-01 -2.773462e+00 191 188 180
2.289863e-01 3.824934e-01 -2.817248e+00 30 26 27
8.119672e-02 4.277916e-01 -2.773123e+00 179 175 171
-2.054489e-01 4.643408e-01 -2.796152e+00 163 164 181
1.646287e-01 4.187583e-01 -2.777895e+00 181 178 173
1.743758e-01 4.199283e-01 -2.779431e+00 188 185 175
8.584359e-02 4.433936e-01 -2.775778e+00 102 100 101
9.530779e-01 2.894033e-01 -2.845892e+00 180 163 132
2.257940e-01 4.149095e-01 -2.824920e+00 137 134 131
1.134578e-01 4.446839e-01 -2.780345e+00 174 172 171
5.231826e-01 3.813758e-01 -2.828047e+00 116 101 68
1.033459e+00 3.046573e-01 -2.841282e+00 79 76 104
5.023502e-01 3.948792e-01 -2.827981e+00 102 108 80
1.078206e+00 3.072315e-01 -2.820882e+00 126 113 136
4.922554e-01 4.074802e-01 -2.822696e+00 174 173 169
4.922173e-01 4.060630e-01 -2.827387e+00 174 173 169
1.643230e-01 4.921876e-01 -2.804017e+00 208 206 210
1.109464e+00 3.528457e-01 -2.830511e+00 77 70 99
2.085702e-01 5.134711e-01 -2.834057e+00 65 72 78
4.873965e-02 5.550107e-01 -2.801750e+00 164 160 158
-2.089353e-02 5.723161e-01 -2.844414e+00 61 60 72
4.304729e-02 5.831703e-01 -2.830571e+00 195 192 183
9.050814e-01 4.537354e-01 -2.891193e+00 207 203 193
6.041018e-01 5.099848e-01 -2.750784e+00 106 71 75
9.013574e-01 4.571826e-01 -2.889647e+00 223 219 210
4.283996e-01 5.465885e-01 -2.671347e+00 188 186 192
4.350794e-01 5.697858e-01 -2.689621e+00 222 232 227
2.047570e-01 6.062253e-01 -2.860686e+00 189 189 195
2.123348e-01 6.089055e-01 -2.856597e+00 160 160 160
3.102918e-01 6.188512e-01 -2.738426e+00 222 201 201
4.759627e-01 6.000408e-01 -2.750238e+00 113 93 82
4.004887e-01 6.242462e-01 -2.731063e+00 91 38 44
2.413273e-01 7.284906e-01 -2.793039e+00 114 117 126
4.390998e-01 6.998135e-01 -2.887073e+00 168 148 123
4.390998e-01 6.998135e-01 -2.887073e+00 168 148 123
4.520308e-01 7.073224e-01 -2.885614e+00 223 219 183
4.522134e-01 7.070065e-01 -2.883367e+00 223 219 183
3.922660e-01 7.274827e-01 -2.889871e+00 137 121 104
3.743995e-01 7.411439e-01 -2.885832e+00 44 38 29
2.367653e-01 7.664893e-01 -2.797733e+00 157 156 154
7.030398e-01 6.854810e-01 -2.791535e+00 205 204 200
3.654265e-01 7.719013e-01 -2.895619e+00 176 163 148
8.144551e-01 7.151235e-01 -2.914399e+00 226 230 206
8.144551e-01 7.151235e-01 -2.914399e+00 226 230 206
5.222208e-01 7.736320e-01 -2.789230e+00 88 48 55
4.594300e-01 7.878917e-01 -2.786158e+00 191 193 166
4.665075e-01 7.867530e-01 -2.782902e+00 204 196 175
4.796569e-01 7.964238e-01 -2.791415e+00 179 168 148
4.388469e-01 8.063867e-01 -2.782715e+00 219 218 216
4.613869e-01 8.057287e-01 -2.787321e+00 176 167 150
4.583740e-01 8.087772e-01 -2.792925e+00 181 173 154
4.630745e-01 8.142806e-01 -2.788773e+00 185 178 162
4.317298e-01 8.278699e-01 -2.796047e+00 77 78 74
7.065025e-01 8.310148e-01 -2.897217e+00 216 211 217
5.288574e-01 8.330352e-01 -2.807675e+00 82 72 49
6.975794e-01 8.382325e-01 -2.898384e+00 218 213 215
6.931147e-01 8.420956e-01 -2.899254e+00 214 211 216
5.387741e-01 8.415537e-01 -2.816002e+00 232 204 181
7.378640e-01 8.438267e-01 -2.878922e+00 202 169 160
7.069538e-01 8.925763e-01 -2.889435e+00 207 170 165
6.043702e-01 9.484121e-01 -2.984095e+00 42 35 37
5.969902e-01 9.506442e-01 -2.980051e+00 200 193 173
7.123906e-01 9.092304e-01 -2.897125e+00 208 174 173
4.912814e-01 9.182243e-01 -2.795488e+00 58 56 55
8.002774e-01 9.759885e-01 -2.941574e+00 212 181 172
5.973155e-02 -4.307612e-02 -2.556284e+00 132 139 144
1.464516e-01 -1.083776e-01 -2.624838e+00 154 158 181
3.622563e-01 -2.142511e-01 -2.740190e+00 179 172 171
3.622563e-01 -2.142511e-01 -2.740190e+00 179 172 171
-5.211393e-02 2.271983e-02 -2.526050e+00 201 204 191
2.528265e-02 -1.494547e-02 -2.597293e+00 31 35 34
7.070688e-01 -1.243755e-01 -2.643355e+00 70 50 50
-5.438529e-02 6.300675e-02 -2.546288e+00 188 189 186
-8.421431e-02 1.122862e-01 -2.580494e+00 75 91 89
8.133478e-01 -7.208032e-02 -2.674563e+00 70 79 81
7.802256e-01 -5.424406e-02 -2.671157e+00 184 179 179
-1.723680e-02 2.066011e-01 -2.680723e+00 108 118 114
4.057150e-01 1.638878e-01 -2.784583e+00 157 154 147
2.602898e-01 2.183718e-01 -2.779263e+00 81 85 55
3.092068e-01 2.164327e-01 -2.784301e+00 197 187 173
3.248310e-01 2.165204e-01 -2.786800e+00 192 178 178
3.595160e-01 2.223551e-01 -2.790283e+00 73 80 92
5.245913e-01 2.564322e-01 -2.690705e+00 176 172 171
5.089770e-01 2.616954e-01 -2.687188e+00 143 141 144
1.063479e-01 2.866252e-01 -2.746209e+00 182 182 182
1.006890e+00 1.099650e-01 -2.813445e+00 165 147 118
2.695499e-01 2.578627e-01 -2.789716e+00 20 19 20
2.450841e-01 2.747839e-01 -2.789430e+00 37 35 22
1.267044e-01 3.186494e-01 -2.757105e+00 152 143 136
7.247900e-02 3.602119e-01 -2.758505e+00 154 150 145
4.651769e-02 3.660145e-01 -2.757869e+00 74 72 58
4.651769e-02 3.660145e-01 -2.757869e+00 74 72 58
4.356066e-01 3.060588e-01 -2.798218e+00 189 182 166
4.356066e-01 3.060588e-01 -2.798218e+00 189 182 166
5.337687e-01 3.264245e-01 -2.707680e+00 143 141 144
1.723842e-01 3.581681e-01 -2.773935e+00 158 163 167
2.670548e-01 3.702777e-01 -2.777697e+00 178 187 197
4.575179e-01 3.460956e-01 -2.806327e+00 86 83 82
4.710062e-01 3.510537e-01 -2.813141e+00 32 24 17
5.849770e-01 3.662895e-01 -2.721997e+00 116 112 110
1.744229e-01 4.158851e-01 -2.777291e+00 136 132 128
1.028256e+00 2.597062e-01 -2.850135e+00 233 210 180
-1.525605e-01 4.597260e-01 -2.800327e+00 57 60 68
5.820283e-01 3.714815e-01 -2.725855e+00 131 129 133
1.051399e+00 2.793646e-01 -2.784352e+00 247 238 238
4.317408e-01 3.934450e-01 -2.774984e+00 152 148 149
3.643622e-02 4.550769e-01 -2.777564e+00 108 104 100
8.845955e-02 4.592160e-01 -2.780884e+00 181 180 175
-1.122991e-01 4.865552e-01 -2.823613e+00 163 165 173
-1.122991e-01 4.865552e-01 -2.823613e+00 163 165 173
4.709656e-01 4.034322e-01 -2.813666e+00 44 43 47
5.332126e-01 3.942640e-01 -2.826585e+00 43 40 22
1.490483e-01 4.649857e-01 -2.788656e+00 190 189 184
1.103148e+00 3.225905e-01 -2.767607e+00 165 177 194
1.042181e+00 3.179995e-01 -2.848012e+00 248 251 253
3.113011e-02 4.964041e-01 -2.786206e+00 152 151 147
8.047789e-02 4.961948e-01 -2.792447e+00 191 189 192
1.059490e-01 4.961434e-01 -2.790324e+00 141 140 136
1.069680e+00 3.413271e-01 -2.826290e+00 178 141 113
9.390444e-01 3.698145e-01 -2.861784e+00 151 143 119
1.107342e+00 3.521243e-01 -2.835441e+00 66 56 100
1.870621e-01 5.330477e-01 -2.838407e+00 60 66 75
9.022487e-01 4.207771e-01 -2.883431e+00 152 143 138
1.041832e-01 5.664691e-01 -2.843779e+00 46 51 55
6.026388e-01 5.050844e-01 -2.749933e+00 242 225 217
8.936023e-01 4.550486e-01 -2.891198e+00 162 153 144
7.254960e-02 6.034060e-01 -2.858963e+00 179 172 162
9.485166e-01 4.782869e-01 -2.834833e+00 190 185 182
4.262725e-01 5.614288e-01 -2.676343e+00 251 251 246
4.883146e-01 5.478472e-01 -2.739099e+00 223 205 197
3.115345e-01 5.961239e-01 -2.729123e+00 99 74 72
1.261264e-01 6.628884e-01 -2.870654e+00 126 124 134
5.701658e-02 6.785560e-01 -2.877707e+00 84 87 94
9.705161e-01 5.384532e-01 -2.825178e+00 111 151 187
2.061941e-01 6.659217e-01 -2.793697e+00 145 145 146
5.715104e-01 6.085511e-01 -2.743327e+00 107 107 109
2.327569e-01 6.803696e-01 -2.881963e+00 45 46 51
4.820055e-01 6.725427e-01 -2.749398e+00 204 171 176
5.476839e-01 6.730222e-01 -2.757074e+00 152 150 151
1.795617e-01 7.708293e-01 -2.791927e+00 46 51 57
2.195936e-01 7.695061e-01 -2.796286e+00 148 148 148
7.496597e-01 7.613276e-01 -2.940895e+00 195 190 162
2.366811e-01 8.348777e-01 -2.825344e+00 29 36 47
4.639139e-01 7.763116e-01 -2.783274e+00 138 124 98
5.201538e-01 7.748638e-01 -2.784761e+00 218 153 150
4.863047e-01 8.191044e-01 -2.793848e+00 173 165 152
4.850506e-01 8.266582e-01 -2.796059e+00 165 162 146
7.506618e-01 8.381502e-01 -2.878674e+00 182 143 128
3.822912e-01 9.274002e-01 -2.852452e+00 222 216 198
5.948614e-01 9.465746e-01 -2.977399e+00 178 186 125
6.307150e-01 9.647280e-01 -2.998069e+00 169 166 165
4.914527e-01 9.132159e-01 -2.790799e+00 187 183 183
4.900924e-01 9.242093e-01 -2.789132e+00 241 238 226
6.593632e-01 1.001196e+00 -3.003811e+00 74 61 75
6.324111e-01 1.010603e+00 -2.994772e+00 121 128 139
2.590803e-01 -2.732320e-01 -2.732134e+00 108 91 81
6.506882e-01 -1.485293e-01 -2.700259e+00 202 183 185
-3.469555e-02 6.487792e-02 -2.566638e+00 12 15 28
7.377711e-01 -4.594252e-02 -2.645261e+00 126 136 146
7.545658e-01 -3.290115e-02 -2.669467e+00 172 169 166
-2.366100e-04 1.799112e-01 -2.672667e+00 95 97 112
7.773511e-01 6.087009e-02 -2.744437e+00 132 128 129
-5.781458e-02 2.530260e-01 -2.668616e+00 192 190 172
3.896573e-01 1.800609e-01 -2.785189e+00 41 45 56
3.839267e-01 1.842196e-01 -2.786522e+00 68 71 83
4.846094e-01 2.481847e-01 -2.680792e+00 126 124 127
1.915842e-01 2.441930e-01 -2.778802e+00 21 27 23
1.017796e+00 9.969998e-02 -2.812821e+00 202 185 173
2.227317e-01 2.623024e-01 -2.783718e+00 158 154 136
3.067706e-01 2.576515e-01 -2.788764e+00 199 194 188
1.134882e-01 3.027521e-01 -2.749209e+00 165 163 170
3.536369e-01 2.551498e-01 -2.794429e+00 189 186 181
4.985749e-01 2.937802e-01 -2.725763e+00 138 130 141
1.331531e-01 3.514981e-01 -2.762154e+00 19 24 23
1.331531e-01 3.514981e-01 -2.762154e+00 19 24 23
4.746758e-01 3.180967e-01 -2.729021e+00 18 52 61
9.471582e-02 3.847863e-01 -2.762788e+00 148 149 144
9.848832e-02 3.876789e-01 -2.764722e+00 143 142 142
6.249033e-02 3.941666e-01 -2.762939e+00 143 139 136
1.646515e-01 3.801422e-01 -2.768309e+00 145 144 140
1.479655e-01 3.906636e-01 -2.769387e+00 158 157 153
1.804928e-01 3.895291e-01 -2.772861e+00 141 137 134
-4.788870e-01 5.011531e-01 -2.720449e+00 60 52 59
1.655442e-01 4.062558e-01 -2.774611e+00 166 165 161
7.607798e-02 4.211187e-01 -2.771472e+00 127 123 122
5.865442e-01 3.603488e-01 -2.724771e+00 135 136 131
1.784056e-01 4.072067e-01 -2.776456e+00 141 138 131
5.105325e-01 3.783075e-01 -2.710506e+00 132 132 134
1.139324e+00 2.669674e-01 -2.765414e+00 77 76 85
-1.649508e-01 4.751525e-01 -2.804578e+00 47 52 57
1.058728e-01 4.424235e-01 -2.778551e+00 120 120 120
6.165390e-02 4.516066e-01 -2.777074e+00 114 111 104
-4.896794e-01 5.572203e-01 -2.717776e+00 223 235 218
1.197273e+00 2.778332e-01 -2.777887e+00 182 173 166
5.626199e-01 4.021214e-01 -2.726349e+00 109 108 108
1.130766e-01 4.667162e-01 -2.785955e+00 128 128 126
4.827884e-01 4.013089e-01 -2.814483e+00 83 78 75
1.044750e+00 3.233981e-01 -2.859442e+00 248 240 244
1.112652e+00 3.534790e-01 -2.797941e+00 117 110 143
1.107969e+00 3.507074e-01 -2.832064e+00 227 231 241
9.463028e-01 3.726277e-01 -2.859516e+00 145 131 103
5.376075e-01 4.752682e-01 -2.818044e+00 82 77 72
1.709036e-01 5.438395e-01 -2.841459e+00 44 48 59
8.912604e-02 6.004789e-01 -2.854369e+00 165 161 150
4.880907e-01 5.436018e-01 -2.737586e+00 202 184 159
2.176222e-01 5.923576e-01 -2.857764e+00 177 176 172
9.215597e-01 4.910048e-01 -2.829368e+00 155 153 150
3.597882e-02 6.515343e-01 -2.868183e+00 174 165 156
6.046353e-01 5.485416e-01 -2.848399e+00 50 43 34
1.206444e-02 6.911817e-01 -2.839879e+00 44 46 50
2.527536e-01 6.676116e-01 -2.884478e+00 60 64 67
2.364318e-01 6.840114e-01 -2.883827e+00 52 53 57
3.150577e-01 7.031769e-01 -2.889435e+00 65 68 67
2.375177e-01 7.209016e-01 -2.789665e+00 140 138 142
3.193256e-01 7.132649e-01 -2.894025e+00 49 50 52
4.584856e-01 7.001505e-01 -2.885375e+00 27 23 15
8.010019e-01 6.496183e-01 -2.838442e+00 164 163 161
4.629159e-01 7.045027e-01 -2.889762e+00 42 27 20
4.629159e-01 7.045027e-01 -2.889762e+00 42 27 20
3.883061e-01 7.291366e-01 -2.884831e+00 150 140 114
4.762836e-01 7.524617e-01 -2.761011e+00 37 39 44
4.943794e-01 7.678314e-01 -2.769108e+00 194 194 196
5.741190e-01 8.094643e-01 -2.885106e+00 32 38 49
4.313025e-01 8.218666e-01 -2.788541e+00 90 100 102
6.934477e-01 8.240397e-01 -2.936592e+00 245 240 243
4.674673e-01 8.221560e-01 -2.798825e+00 199 193 177
7.476211e-01 8.403816e-01 -2.879629e+00 136 123 122
5.453454e-01 8.712619e-01 -2.781821e+00 171 179 167
7.263936e-01 9.247818e-01 -2.906292e+00 200 160 155
5.337487e-01 9.860470e-01 -2.971916e+00 231 240 224
6.463674e-01 1.009035e+00 -3.001555e+00 224 231 227
5.761028e-01 1.024241e+00 -3.005250e+00 101 108 65
6.356088e-01 1.016525e+00 -3.003724e+00 212 222 215
3.855135e-01 -2.630285e-01 -2.705836e+00 78 75 81
3.885833e-01 -1.566143e-01 -2.753023e+00 150 146 145
3.841512e-01 -1.450399e-01 -2.749017e+00 146 145 144
7.584439e-01 -7.133027e-02 -2.649431e+00 175 173 188
-5.004098e-02 1.142608e-01 -2.584639e+00 133 133 131
8.189029e-01 -6.697989e-02 -2.672454e+00 226 228 215
7.849152e-01 5.846396e-02 -2.748054e+00 152 147 143
4.154173e-01 1.806685e-01 -2.780894e+00 195 198 197
2.633344e-01 2.197872e-01 -2.781581e+00 32 32 26
2.485194e-01 2.283274e-01 -2.780347e+00 30 35 23
2.907587e-01 2.243330e-01 -2.783962e+00 109 102 91
3.550343e-01 2.145285e-01 -2.787712e+00 60 66 78
5.341525e-01 2.551728e-01 -2.688903e+00 167 166 164
4.228311e-01 2.290318e-01 -2.784218e+00 100 103 109
4.798505e-01 2.724126e-01 -2.690364e+00 126 124 127
5.428442e-01 2.653389e-01 -2.693478e+00 141 137 138
2.335090e-01 2.698544e-01 -2.785492e+00 156 151 133
1.052749e+00 1.140517e-01 -2.822551e+00 178 167 137
1.876768e-01 2.962289e-01 -2.788211e+00 73 66 50
6.449239e-02 3.313783e-01 -2.749525e+00 163 158 139
1.335772e-01 3.228821e-01 -2.758266e+00 149 159 161
4.825057e-01 2.954667e-01 -2.726867e+00 45 44 49
5.848509e-01 2.877451e-01 -2.704755e+00 132 133 135
4.820665e-01 3.131174e-01 -2.730637e+00 172 171 162
6.146354e-01 3.050885e-01 -2.712593e+00 120 119 117
-6.170039e-02 3.705491e-01 -2.804015e+00 52 69 72
1.230849e-01 3.698910e-01 -2.763479e+00 148 147 142
1.156257e+00 2.111751e-01 -2.741411e+00 165 166 172
4.365075e-01 3.297181e-01 -2.804264e+00 195 191 182
8.450891e-02 3.932893e-01 -2.764573e+00 152 151 143
2.309987e-01 3.861476e-01 -2.817703e+00 133 133 128
1.183197e-01 4.172956e-01 -2.776693e+00 167 166 162
1.030948e+00 2.522605e-01 -2.846221e+00 226 212 202
4.611768e-01 3.596209e-01 -2.812647e+00 33 33 38
-1.839320e-01 4.682373e-01 -2.791671e+00 164 143 144
5.329286e-02 4.406250e-01 -2.772843e+00 99 98 92
7.525688e-02 4.405150e-01 -2.775194e+00 100 96 94
1.054846e+00 2.847154e-01 -2.783888e+00 82 77 98
1.139896e+00 2.727474e-01 -2.786547e+00 53 49 36
4.579898e-02 4.496720e-01 -2.775197e+00 165 165 162
1.508038e-01 4.378840e-01 -2.784030e+00 138 137 135
1.508038e-01 4.378840e-01 -2.784030e+00 138 137 135
4.302124e-01 3.992641e-01 -2.773831e+00 139 134 140
4.396222e-01 4.045469e-01 -2.773773e+00 183 180 169
1.018432e+00 3.083355e-01 -2.862623e+00 118 110 74
1.173964e-01 4.745325e-01 -2.790283e+00 150 149 147
6.675896e-02 4.912297e-01 -2.784407e+00 148 147 144
3.966708e-02 5.029467e-01 -2.787774e+00 166 163 160
1.081551e-01 4.993455e-01 -2.791979e+00 164 163 159
1.041917e+00 3.451776e-01 -2.876536e+00 127 117 91
1.277780e+00 3.386663e-01 -2.824346e+00 153 146 137
9.848848e-02 5.271862e-01 -2.798309e+00 167 166 164
4.562549e-01 4.983956e-01 -2.716093e+00 70 68 73
5.864952e-01 4.880147e-01 -2.743105e+00 72 42 54
1.083003e+00 4.044894e-01 -2.900390e+00 117 115 85
1.108272e-01 5.675124e-01 -2.843942e+00 52 59 70
9.995568e-02 5.767878e-01 -2.845940e+00 55 59 67
2.311421e-01 5.637422e-01 -2.850224e+00 189 188 184
2.311421e-01 5.637422e-01 -2.850224e+00 189 188 184
6.722193e-02 6.169090e-01 -2.860431e+00 183 179 168
9.548730e-01 4.881509e-01 -2.840114e+00 204 201 188
7.532435e-02 6.879329e-01 -2.874872e+00 107 108 103
2.593126e-02 7.238104e-01 -2.875186e+00 37 37 39
5.870457e-01 6.118473e-01 -2.747994e+00 119 117 129
5.727801e-01 6.494221e-01 -2.755942e+00 158 157 155
4.568831e-01 7.037520e-01 -2.886707e+00 150 145 126
4.568831e-01 7.037520e-01 -2.886707e+00 150 145 126
1.851322e-01 7.658013e-01 -2.784498e+00 70 78 82
7.810038e-01 7.165743e-01 -2.910215e+00 56 62 75
6.892369e-01 8.135660e-01 -2.943854e+00 209 201 184
6.840739e-01 8.175060e-01 -2.944558e+00 200 193 175
6.057266e-01 8.411295e-01 -2.951660e+00 37 46 51
8.090132e-01 8.543940e-01 -2.850142e+00 175 113 121
5.755373e-01 1.013050e+00 -3.002702e+00 136 144 99
6.429109e-01 1.016183e+00 -3.001366e+00 52 53 122
6.429109e-01 1.016183e+00 -3.001366e+00 52 53 122
3.806362e-01 -2.066045e-01 -2.743402e+00 54 56 70
7.019614e-01 -1.331648e-01 -2.635544e+00 218 211 208
2.358717e-02 -6.145598e-03 -2.606683e+00 186 179 179
3.311421e-01 -2.226793e-02 -2.716672e+00 111 115 84
4.021830e-01 -6.322489e-02 -2.757760e+00 99 99 106
7.919311e-01 1.499279e-02 -2.682561e+00 193 149 137
8.100068e-01 1.852737e-02 -2.702580e+00 18 20 17
8.099477e-01 5.480788e-02 -2.751366e+00 45 51 63
4.793334e-01 2.577598e-01 -2.682054e+00 133 131 132
1.834460e-01 2.548792e-01 -2.777360e+00 18 25 17
5.137804e-01 2.584796e-01 -2.687256e+00 171 167 164
4.029062e-01 2.431886e-01 -2.782733e+00 200 197 203
3.220614e-01 2.738406e-01 -2.797692e+00 164 160 151
1.675834e-01 3.346900e-01 -2.765846e+00 157 158 160
2.093388e-01 3.468073e-01 -2.766350e+00 56 63 82
2.099502e-01 3.471786e-01 -2.765323e+00 56 63 82
1.000461e+00 1.940764e-01 -2.834710e+00 144 130 130
9.016582e-01 2.307055e-01 -2.824212e+00 150 135 100
1.321208e-01 3.749228e-01 -2.766129e+00 171 167 164
-2.818384e-01 4.670515e-01 -2.722521e+00 51 53 44
1.481077e-01 3.975390e-01 -2.772089e+00 164 164 162
-2.850134e-01 4.709937e-01 -2.721563e+00 15 19 15
-4.627692e-01 5.033460e-01 -2.718305e+00 106 100 101
1.225157e+00 2.369142e-01 -2.779227e+00 69 60 83
1.021952e+00 2.562645e-01 -2.851387e+00 195 180 157
5.771607e-01 3.691828e-01 -2.722815e+00 114 112 113
1.489355e-01 4.296222e-01 -2.775551e+00 160 160 158
5.306605e-02 4.472020e-01 -2.774181e+00 124 123 118
5.386378e-01 4.003259e-01 -2.721480e+00 124 119 123
5.452959e-01 4.053239e-01 -2.723116e+00 142 138 139
4.454560e-01 4.122262e-01 -2.775084e+00 57 42 36
1.097861e+00 3.222653e-01 -2.767174e+00 172 177 210
-3.955829e-01 5.809184e-01 -2.715978e+00 65 91 94
3.994281e-02 4.965500e-01 -2.789001e+00 158 154 151
-3.597542e-01 5.844599e-01 -2.736345e+00 39 41 46
7.930557e-02 4.981769e-01 -2.790923e+00 105 104 101
7.930557e-02 4.981769e-01 -2.790923e+00 105 104 101
-2.423012e-01 5.886806e-01 -2.832532e+00 27 32 36
2.048325e-01 6.709485e-01 -2.792216e+00 173 179 179
1.854630e-01 7.007331e-01 -2.810236e+00 158 154 151
1.854630e-01 7.007331e-01 -2.810236e+00 158 154 151
5.890976e-01 6.384063e-01 -2.754724e+00 191 191 193
6.011397e-01 6.470002e-01 -2.758383e+00 113 111 118
3.214054e-01 7.094974e-01 -2.892126e+00 31 30 25
1.290598e+00 6.174220e-01 -2.953068e+00 234 228 202
7.221308e-01 8.478163e-01 -2.878153e+00 182 164 195
7.232374e-01 8.689064e-01 -2.884669e+00 193 161 149
7.193778e-01 9.028156e-01 -2.897739e+00 187 153 144
1.661195e-01 -1.278843e-01 -2.620679e+00 142 134 133
4.115811e-01 -2.630932e-01 -2.729891e+00 30 34 43
2.408642e-01 -9.761127e-02 -2.736992e+00 35 38 44
4.148387e-01 -9.881192e-02 -2.738050e+00 27 27 24
5.750117e-02 4.126816e-02 -2.634008e+00 29 33 45
5.117037e-02 4.617790e-02 -2.634517e+00 29 32 41
8.073217e-01 5.932282e-02 -2.753545e+00 152 142 144
3.551973e-01 1.808181e-01 -2.779545e+00 32 35 40
4.862556e-01 2.467736e-01 -2.678496e+00 128 126 129
1.007254e+00 8.680262e-02 -2.807678e+00 206 195 178
3.911362e-01 2.157064e-01 -2.790746e+00 57 67 79
1.047190e+00 1.441811e-01 -2.782509e+00 252 250 247
5.881668e-01 2.793454e-01 -2.704712e+00 138 137 137
5.790817e-01 2.908009e-01 -2.703223e+00 121 121 123
1.441744e-01 4.102878e-01 -2.771716e+00 155 154 150
7.602217e-02 4.263119e-01 -2.769659e+00 172 168 167
-4.862382e-01 5.203095e-01 -2.726261e+00 103 97 94
4.821986e-01 3.705120e-01 -2.815232e+00 140 122 100
4.877560e-01 3.710004e-01 -2.822129e+00 137 132 103
4.816949e-01 3.741186e-01 -2.822166e+00 36 39 29
-4.653371e-01 5.535396e-01 -2.726445e+00 72 83 87
1.772669e-01 4.320601e-01 -2.820610e+00 19 20 24
-4.025785e-01 5.572168e-01 -2.728633e+00 21 43 50
7.986548e-02 5.268746e-01 -2.796691e+00 162 158 155
1.131518e-01 5.844808e-01 -2.853287e+00 76 77 82
5.386584e-01 5.160657e-01 -2.844213e+00 44 49 55
4.270029e-01 5.530933e-01 -2.673115e+00 167 167 165
4.892179e-01 5.521638e-01 -2.739957e+00 78 63 67
2.332842e-01 6.643401e-01 -2.874299e+00 43 44 49
8.339708e-01 6.592647e-01 -2.849588e+00 192 188 185
2.050764e-01 7.716670e-01 -2.797671e+00 128 130 129
4.578926e-01 7.904167e-01 -2.782061e+00 161 160 139
5.251067e-01 8.299486e-01 -2.810585e+00 80 75 70
5.096337e-01 8.795930e-01 -2.781595e+00 68 83 106
6.011366e-01 9.550637e-01 -2.978994e+00 64 65 51
7.278341e-01 9.335063e-01 -2.898429e+00 53 31 46
6.467006e-01 1.001328e+00 -3.014425e+00 167 169 161
4.225974e-01 -2.816795e-01 -2.723219e+00 25 26 39
-5.202348e-02 2.814552e-02 -2.530443e+00 23 27 37
2.657529e-01 -1.253250e-01 -2.734783e+00 32 33 38
6.510252e-02 1.183176e-01 -2.664794e+00 97 105 114
-8.704586e-03 1.962565e-01 -2.689767e+00 15 18 25
4.670671e-01 2.546650e-01 -2.682073e+00 162 161 159
1.784298e-01 2.560681e-01 -2.778831e+00 21 23 18
4.105063e-01 2.293881e-01 -2.780093e+00 112 110 116
3.293205e-01 2.601580e-01 -2.791919e+00 188 185 180
8.111177e-02 3.084583e-01 -2.752356e+00 145 155 160
1.019336e+00 1.774611e-01 -2.804912e+00 254 252 252
5.974528e-01 2.926645e-01 -2.711265e+00 104 102 105
1.026323e+00 2.013134e-01 -2.832951e+00 111 77 67
1.167224e-01 3.779485e-01 -2.763951e+00 160 159 157
1.234409e-01 3.850341e-01 -2.764701e+00 144 140 137
5.095679e-01 3.537006e-01 -2.708178e+00 119 118 123
4.607909e-01 3.628213e-01 -2.814328e+00 31 30 35
4.607909e-01 3.628213e-01 -2.814328e+00 31 30 35
4.608832e-01 3.641342e-01 -2.810714e+00 31 30 35
8.969065e-01 2.897353e-01 -2.832648e+00 156 141 110
-1.841105e-01 4.731438e-01 -2.791638e+00 156 154 143
-4.622168e-01 5.334623e-01 -2.725006e+00 172 157 151
1.056935e+00 2.878440e-01 -2.773628e+00 247 243 243
3.884609e-02 4.516144e-01 -2.772039e+00 155 154 152
1.352191e-01 4.427805e-01 -2.780891e+00 164 163 159
9.285703e-01 3.131560e-01 -2.847376e+00 178 160 128
-4.300603e-01 5.937078e-01 -2.706606e+00 90 110 116
1.573634e-01 5.059586e-01 -2.807143e+00 111 110 110
1.087489e+00 3.964485e-01 -2.897257e+00 173 165 152
1.048867e-01 6.422687e-01 -2.871222e+00 65 65 77
4.787678e-01 5.920978e-01 -2.748547e+00 105 91 90
9.714827e-01 5.306622e-01 -2.824431e+00 157 184 206
2.389256e-01 6.549992e-01 -2.872526e+00 71 66 70
5.193389e-01 7.753337e-01 -2.791059e+00 170 103 94
4.043009e-01 -2.591225e-01 -2.737791e+00 34 39 45
-6.563569e-02 3.665346e-02 -2.533433e+00 121 120 130
1.044193e-01 6.850153e-02 -2.751807e+00 14 15 20
1.044193e-01 6.850153e-02 -2.751807e+00 14 15 20
-3.403967e-02 2.601006e-01 -2.778141e+00 24 25 30
5.427448e-01 2.712585e-01 -2.694324e+00 173 170 161
-3.947444e-02 3.141384e-01 -2.794268e+00 165 157 155
1.721283e-01 3.457312e-01 -2.766368e+00 145 134 130
-7.070510e-02 3.686436e-01 -2.802209e+00 159 156 148
3.239039e-01 3.523198e-01 -2.775458e+00 137 157 164
1.467591e-01 3.809729e-01 -2.767444e+00 139 136 132
1.195959e-01 4.250070e-01 -2.775424e+00 148 147 143
1.053740e+00 2.830579e-01 -2.772672e+00 244 243 239
1.201449e+00 2.656890e-01 -2.774691e+00 195 190 184
1.057351e+00 2.843715e-01 -2.791897e+00 87 84 100
4.727654e-01 3.734509e-01 -2.816754e+00 29 31 28
1.602540e-01 4.417633e-01 -2.781781e+00 152 151 147
-2.408040e-01 5.448410e-01 -2.687858e+00 28 31 25
-4.172753e-01 5.704112e-01 -2.720454e+00 14 24 33
3.816580e-02 4.829379e-01 -2.784275e+00 152 151 149
5.472847e-01 4.723761e-01 -2.811058e+00 31 31 29
6.388654e-02 5.583822e-01 -2.806258e+00 155 154 152
1.472640e-01 5.912146e-01 -2.849626e+00 87 83 82
1.702030e-01 7.376024e-01 -2.821157e+00 152 145 135
1.281159e-01 7.460828e-01 -2.805422e+00 28 31 40
-7.292049e-02 1.037363e-01 -2.582729e+00 22 32 41
3.524612e-02 1.528019e-01 -2.655428e+00 17 20 25
5.354539e-01 2.508118e-01 -2.689275e+00 167 163 162
3.794364e-01 2.683547e-01 -2.787361e+00 69 74 68
9.481844e-02 3.592368e-01 -2.755871e+00 180 175 171
1.325533e-01 4.520739e-01 -2.780273e+00 153 153 151
-4.197768e-01 5.792363e-01 -2.711154e+00 97 130 149
6.254024e-02 4.900417e-01 -2.785330e+00 154 153 151
6.242181e-02 4.904155e-01 -2.785494e+00 154 153 151
9.980515e-02 4.940385e-01 -2.786759e+00 174 174 172
9.942422e-02 4.940995e-01 -2.787325e+00 174 174 172
1.608109e-01 6.232980e-01 -2.851948e+00 37 41 50
2.066228e-01 6.666145e-01 -2.838974e+00 156 149 131
1.245505e-01 7.302457e-01 -2.815248e+00 104 103 101
2.180970e-01 7.792457e-01 -2.801003e+00 128 129 127
6.861306e-01 8.482539e-01 -2.899245e+00 247 246 244
6.568020e-01 9.912991e-01 -3.013676e+00 178 174 170
4.342218e-01 -2.652186e-01 -2.726256e+00 103 132 164
7.861921e-01 8.436993e-02 -2.782325e+00 31 31 41
1.040458e-01 3.070052e-01 -2.750017e+00 149 146 142
4.944259e-01 3.874751e-01 -2.832147e+00 24 26 25
4.213426e-02 5.739468e-01 -2.815622e+00 27 27 27
4.213426e-02 5.739468e-01 -2.815622e+00 27 27 27
7.333050e-03 6.981655e-01 -2.808580e+00 176 147 144
3.711675e-01 -1.274078e-01 -2.761717e+00 40 46 58
7.797349e-01 -6.284931e-02 -2.677948e+00 175 171 168
8.636156e-01 1.499689e-01 -2.807053e+00 74 91 69
5.969628e-01 3.049240e-01 -2.706266e+00 113 111 111
9.407298e-01 4.656052e-01 -2.831698e+00 181 160 190
1.160172e-01 6.250873e-01 -2.852711e+00 57 56 62
1.424048e-01 6.275460e-01 -2.850172e+00 209 218 225
3.384324e-01 -4.236991e-02 -2.721635e+00 117 118 87
3.384324e-01 -4.236991e-02 -2.721635e+00 117 118 87
2.801585e-01 2.364044e-01 -2.777973e+00 32 35 28
9.959370e-02 3.551442e-01 -2.758154e+00 172 172 164
-2.067610e-01 4.552945e-01 -2.769443e+00 38 40 46
1.433425e-01 5.777245e-01 -2.837284e+00 170 167 160
1.419472e-01 5.771558e-01 -2.841523e+00 170 167 160
-1.552613e-02 1.730513e-01 -2.610966e+00 154 150 149
1.095909e-01 5.986646e-01 -2.846162e+00 180 180 174
1.095909e-01 5.986646e-01 -2.846162e+00 180 180 174
4.290646e-01 -2.114305e-01 -2.731594e+00 36 42 54
1.132726e-02 1.928960e-01 -2.621606e+00 34 38 52
3.020641e-01 3.058583e-01 -2.780996e+00 38 43 54
1.785893e-01 5.819175e-01 -2.850897e+00 40 45 50
3.703968e-01 -3.284042e-02 -2.754643e+00 24 26 25
9.097752e-02 3.659544e-01 -2.776697e+00 164 163 159
8.098331e-01 9.581836e-01 -2.921036e+00 181 160 136
4.705286e-01 7.874944e-01 -2.779776e+00 196 189 171
6.648695e-02 4.702522e-01 -2.781544e+00 150 150 150
5.148306e-01 8.240901e-01 -2.802925e+00 177 166 154
4.733155e-01 8.222956e-01 -2.794204e+00 181 174 160
4.474690e-01 8.180755e-01 -2.792677e+00 233 225 212
5.219637e-01 7.771733e-01 -2.786406e+00 56 14 24
4.411673e-01 7.655904e-01 -2.764768e+00 253 249 240
5.548951e-01 7.307356e-01 -2.808574e+00 154 110 117
6.999135e-01 6.880253e-01 -2.789325e+00 216 215 218
6.280824e-01 6.737472e-01 -2.772967e+00 116 116 114
5.612759e-01 6.590845e-01 -2.757552e+00 190 187 182
4.792944e-01 6.531491e-01 -2.784576e+00 220 193 190
5.625257e-01 6.321245e-01 -2.748129e+00 158 157 153
3.931988e-01 6.216798e-01 -2.758159e+00 218 156 165
4.680520e-01 6.060448e-01 -2.746271e+00 106 86 91
4.825778e-01 5.815766e-01 -2.733948e+00 243 231 242
4.860205e-01 5.445322e-01 -2.731245e+00 190 170 166
9.227683e-02 5.599249e-01 -2.806777e+00 147 144 137
1.928235e-01 5.416374e-01 -2.838976e+00 212 211 218
1.062532e-01 5.445568e-01 -2.805074e+00 152 152 135
6.180088e-01 5.146246e-01 -2.754697e+00 242 231 225
6.178429e-01 5.148436e-01 -2.754213e+00 242 231 225
5.859248e-01 4.903983e-01 -2.742707e+00 135 125 133
8.096604e-02 4.890879e-01 -2.788543e+00 162 161 157
9.921468e-02 4.654856e-01 -2.784339e+00 199 198 194
1.561082e-01 4.513204e-01 -2.784223e+00 143 143 135
1.363036e-01 4.362213e-01 -2.778347e+00 174 173 171
4.301816e-01 4.023692e-01 -2.775477e+00 30 30 26
2.715850e-01 3.665002e-01 -2.774388e+00 203 212 230
1.730103e-01 3.562935e-01 -2.771159e+00 150 151 156
9.642979e-02 3.580299e-01 -2.758208e+00 199 199 191
5.832969e-01 3.609866e-01 -2.721080e+00 154 154 152
5.429088e-01 3.430665e-01 -2.709818e+00 151 152 151
4.899009e-01 3.096989e-01 -2.728764e+00 121 94 67
3.606796e-01 2.623078e-01 -2.793455e+00 193 190 183
3.515826e-01 2.410739e-01 -2.789549e+00 201 206 207
3.689596e-01 2.285428e-01 -2.789045e+00 153 164 174
5.212875e-01 8.295542e-01 -2.806405e+00 190 181 152
4.321345e-01 7.734874e-01 -2.766438e+00 248 238 235
4.451871e-01 7.619304e-01 -2.768194e+00 252 244 241
3.451219e-01 7.593565e-01 -2.875803e+00 217 206 214
5.748434e-01 7.163121e-01 -2.819796e+00 77 86 88
5.454761e-01 6.764598e-01 -2.761270e+00 142 138 135
5.586040e-01 6.683711e-01 -2.758504e+00 181 180 176
5.571183e-01 6.576734e-01 -2.755871e+00 192 191 187
5.430725e-01 6.533426e-01 -2.752222e+00 194 195 189
6.185516e-01 6.438610e-01 -2.762610e+00 129 130 124
5.927124e-01 6.223065e-01 -2.751644e+00 143 139 136
9.293407e-02 6.025387e-01 -2.859681e+00 184 176 171
6.733293e-01 5.382042e-01 -2.690487e+00 108 116 112
7.051431e-01 4.988356e-01 -2.727217e+00 75 80 96
4.370511e-01 4.284913e-01 -2.793220e+00 31 36 39
1.548067e-01 3.855051e-01 -2.769548e+00 189 185 184
1.434689e-01 3.672033e-01 -2.763124e+00 168 168 166
1.848824e-01 3.595569e-01 -2.773845e+00 160 169 167
1.269220e-01 3.583099e-01 -2.760805e+00 162 158 157
5.958294e-01 3.472288e-01 -2.719152e+00 130 126 127
4.201760e-01 3.194182e-01 -2.795624e+00 128 120 114
1.078449e-01 3.216784e-01 -2.751085e+00 46 46 50
5.213997e-01 3.371193e-01 -2.708676e+00 38 39 35
4.932685e-01 3.044610e-01 -2.727945e+00 237 204 115
9.803948e-02 2.863425e-01 -2.744838e+00 25 25 43
5.528731e-01 3.113378e-01 -2.701175e+00 158 157 157
4.883661e-01 2.851607e-01 -2.689454e+00 132 133 136
