ply
format ascii 1.0
element face 0
property list uchar int vertex_indices
element vertex 936
property float x
property float y
property float z
property uchar diffuse_red
property uchar diffuse_green
property uchar diffuse_blue
end_header
1.336656e+00 7.129093e-01 -3.024925e+00 216 172 144
1.310066e+00 7.305974e-01 -3.028413e+00 195 185 183
5.031347e-02 1.013463e+00 -2.992211e+00 44 51 64
1.093869e+00 9.011386e-01 -3.008702e+00 130 114 88
-1.145883e-01 1.136075e+00 -2.913347e+00 53 43 62
1.087532e+00 9.104457e-01 -3.009587e+00 120 104 88
7.409754e-02 1.109462e+00 -3.004278e+00 29 27 35
2.906187e-01 1.078163e+00 -2.999844e+00 35 42 49
3.367543e-01 1.068326e+00 -2.996390e+00 49 57 64
9.682864e-01 9.757478e-01 -3.003385e+00 186 173 165
1.024330e+00 9.749196e-01 -3.018109e+00 163 145 133
1.318205e+00 9.710259e-01 -3.081258e+00 207 191 178
9.822371e-01 9.861834e-01 -3.011519e+00 191 181 172
9.908977e-01 9.860965e-01 -3.014633e+00 189 174 167
9.762712e-01 9.902160e-01 -3.012694e+00 185 172 163
9.766020e-01 9.950425e-01 -3.012894e+00 184 170 159
9.920004e-01 9.961680e-01 -3.015875e+00 186 172 163
9.525403e-01 1.005244e+00 -3.013449e+00 176 166 156
9.784088e-01 1.005057e+00 -3.015176e+00 184 172 161
2.842942e-01 1.116552e+00 -3.016814e+00 154 144 133
4.355634e-01 1.082309e+00 -2.999819e+00 172 149 130
1.000176e+00 1.021532e+00 -3.029879e+00 186 175 164
1.517690e+00 1.041691e+00 -3.163882e+00 153 145 155
2.419282e-01 1.176081e+00 -3.034676e+00 42 48 60
2.780702e-01 1.189861e+00 -3.042307e+00 177 175 182
1.418844e+00 1.105976e+00 -3.173228e+00 216 198 196
6.069740e-02 1.279301e+00 -2.987739e+00 23 30 37
2.776221e-01 1.222729e+00 -3.053246e+00 36 40 52
4.206871e-01 1.188008e+00 -3.045353e+00 51 62 47
1.202769e+00 1.119422e+00 -3.113027e+00 187 174 158
3.362947e-01 1.211433e+00 -3.051397e+00 131 127 115
5.179909e-01 1.164966e+00 -3.029217e+00 58 43 33
1.323182e+00 1.131185e+00 -3.155859e+00 174 157 141
2.707656e-01 1.240427e+00 -3.023798e+00 234 219 172
3.925728e-01 1.232885e+00 -3.060666e+00 161 146 137
4.864166e-01 1.209993e+00 -3.045951e+00 51 58 46
4.082024e-01 1.232231e+00 -3.056397e+00 61 53 50
3.945427e-01 1.242139e+00 -3.062409e+00 52 53 38
5.302094e-01 1.224166e+00 -3.040391e+00 96 86 73
1.132131e-01 1.357378e+00 -3.077581e+00 175 177 163
5.196301e-01 1.268260e+00 -3.057595e+00 179 165 155
5.183770e-01 1.274142e+00 -3.053419e+00 174 164 157
2.580520e-01 1.359099e+00 -3.060272e+00 130 138 127
3.216449e-01 1.347349e+00 -3.085552e+00 156 151 133
5.164632e-01 1.286719e+00 -3.063772e+00 162 151 136
5.445054e-01 1.285121e+00 -3.066118e+00 176 166 156
3.866269e-01 1.332965e+00 -3.088345e+00 147 142 136
9.202316e-02 3.422737e-01 -2.753803e+00 155 149 148
-8.525444e-02 3.717490e-01 -2.778439e+00 48 53 57
9.927931e-01 1.867009e-01 -2.826864e+00 56 41 61
1.163491e-01 3.973008e-01 -2.770660e+00 164 160 159
9.388453e-01 2.512366e-01 -2.809740e+00 117 94 77
9.046466e-01 2.589753e-01 -2.813002e+00 162 146 115
9.373017e-01 2.701330e-01 -2.821590e+00 172 152 125
9.811071e-01 2.619969e-01 -2.831173e+00 183 176 159
9.576902e-01 2.798549e-01 -2.829035e+00 178 156 133
9.619027e-01 2.894495e-01 -2.831792e+00 189 168 148
9.562251e-01 3.037552e-01 -2.832380e+00 174 159 130
1.006040e-01 4.805134e-01 -2.789415e+00 189 185 186
9.563438e-01 3.671907e-01 -2.851286e+00 124 115 85
1.052163e+00 3.405696e-01 -2.857423e+00 190 146 141
-3.417232e-02 5.209632e-01 -2.834431e+00 71 71 81
-3.345419e-01 5.879555e-01 -2.740788e+00 57 66 78
1.077323e+00 3.704073e-01 -2.836125e+00 113 115 110
1.125199e+00 3.815704e-01 -2.814140e+00 144 136 162
-2.336786e-01 5.952279e-01 -2.815117e+00 27 26 31
4.364945e-01 5.850767e-01 -2.745503e+00 49 55 72
-6.818588e-02 5.709678e-01 -2.859557e+00 37 43 54
-6.551471e-02 5.771843e-01 -2.862776e+00 161 167 167
-8.200395e-02 5.962499e-01 -2.866359e+00 45 53 62
-2.369571e-01 6.303631e-01 -2.823811e+00 20 20 28
4.944285e-01 5.951545e-01 -2.756007e+00 51 45 52
-9.653227e-02 6.068381e-01 -2.872654e+00 44 49 60
-3.808436e-01 7.598354e-01 -2.743523e+00 82 97 102
-3.808436e-01 7.598354e-01 -2.743523e+00 82 97 102
-2.857741e-02 7.206118e-01 -2.827903e+00 83 80 103
-2.182131e-01 7.420190e-01 -2.874171e+00 21 28 39
2.962895e-02 7.239773e-01 -2.873909e+00 39 38 43
-4.286578e-01 8.359080e-01 -2.783969e+00 67 74 98
1.246890e+00 5.900470e-01 -2.964857e+00 150 152 120
-2.836266e-01 8.930122e-01 -2.943348e+00 17 18 20
1.293015e+00 6.402286e-01 -2.995334e+00 188 113 123
1.268705e+00 6.592723e-01 -3.005209e+00 193 167 154
-2.573043e-01 9.976193e-01 -2.827813e+00 53 56 63
-7.505264e-02 1.020239e+00 -2.824628e+00 114 88 98
3.707444e-02 1.044017e+00 -2.996056e+00 38 44 56
7.899248e-02 1.034010e+00 -2.994439e+00 31 43 55
1.752505e-01 1.039019e+00 -2.986846e+00 165 161 163
1.093688e+00 9.070967e-01 -3.007853e+00 174 160 134
-9.026473e-02 1.188591e+00 -2.945576e+00 99 103 106
1.360219e+00 9.816950e-01 -3.092174e+00 164 151 160
-1.051169e-01 1.215877e+00 -2.935232e+00 50 41 71
8.648895e-02 1.159080e+00 -2.939192e+00 26 28 40
8.648895e-02 1.159080e+00 -2.939192e+00 26 28 40
9.697488e-01 1.003220e+00 -3.013765e+00 184 171 163
9.940308e-01 1.027381e+00 -3.030556e+00 185 174 165
9.575993e-01 1.034754e+00 -3.022148e+00 178 176 152
1.386686e+00 1.055115e+00 -3.140567e+00 174 161 144
1.381826e+00 1.064535e+00 -3.143938e+00 153 140 124
1.329479e+00 1.096456e+00 -3.136252e+00 197 181 165
1.262506e+00 1.153871e+00 -3.146177e+00 186 170 155
4.188455e-01 1.225718e+00 -3.053761e+00 169 157 145
5.609496e-01 1.212593e+00 -3.039457e+00 55 48 54
4.135931e-01 1.253172e+00 -3.065255e+00 70 61 55
4.078787e-01 1.266091e+00 -3.072382e+00 139 135 110
3.232610e-01 1.288089e+00 -3.065382e+00 48 46 51
3.728051e-01 1.278265e+00 -3.073999e+00 129 124 119
2.364884e-01 1.314773e+00 -3.040069e+00 30 32 25
4.891176e-01 1.244905e+00 -3.056983e+00 41 46 39
3.711442e-01 1.284587e+00 -3.075320e+00 176 173 162
2.445931e-01 1.324546e+00 -3.040462e+00 68 71 54
5.339080e-01 1.245662e+00 -3.050358e+00 35 22 29
5.347058e-01 1.244076e+00 -3.041289e+00 35 22 29
2.128730e-01 1.343133e+00 -3.036233e+00 36 38 28
4.473456e-01 1.286750e+00 -3.077513e+00 162 145 133
3.041815e-01 1.334757e+00 -3.074758e+00 86 75 83
3.436604e-01 1.333302e+00 -3.084510e+00 157 148 139
5.163388e-01 1.280701e+00 -3.061667e+00 110 98 98
8.400235e-01 1.671368e-01 -2.774635e+00 164 161 147
4.456432e-01 3.191988e-01 -2.810805e+00 195 188 179
9.856036e-01 2.231280e-01 -2.820148e+00 132 118 118
1.514119e-01 4.019034e-01 -2.778748e+00 191 187 184
4.953983e-01 3.462723e-01 -2.819608e+00 90 69 66
1.032652e-01 4.248068e-01 -2.777165e+00 152 151 148
6.193593e-02 4.462316e-01 -2.780343e+00 115 109 111
9.354051e-01 2.884997e-01 -2.826337e+00 184 165 133
1.065339e+00 2.932341e-01 -2.803068e+00 133 121 135
1.277477e-01 4.708034e-01 -2.792027e+00 147 147 145
1.903032e-01 4.770162e-01 -2.803266e+00 31 29 30
1.037094e+00 3.193748e-01 -2.828337e+00 114 112 125
1.037094e+00 3.193748e-01 -2.828337e+00 114 112 125
-1.541054e-01 4.919885e-01 -2.826260e+00 42 44 57
1.042656e+00 3.270769e-01 -2.831918e+00 150 151 168
4.923304e-01 5.285046e-01 -2.744852e+00 178 169 168
-1.629941e-01 5.667642e-01 -2.830407e+00 162 166 162
4.905160e-01 5.594295e-01 -2.747513e+00 178 170 163
-9.331880e-03 5.808522e-01 -2.851561e+00 77 77 90
-2.339038e-01 6.195905e-01 -2.827116e+00 18 21 29
1.145878e-01 6.182517e-01 -2.841118e+00 74 50 48
-3.432721e-01 6.739254e-01 -2.822221e+00 13 20 31
-3.647346e-01 7.036061e-01 -2.772396e+00 24 38 47
-1.338902e-01 7.016450e-01 -2.807598e+00 22 27 30
-3.687660e-01 7.419916e-01 -2.773639e+00 64 85 89
-3.741697e-01 7.509925e-01 -2.776223e+00 49 69 75
-3.818770e-01 7.562458e-01 -2.770094e+00 14 21 27
-3.852599e-01 7.304333e-01 -2.841532e+00 16 18 31
-4.193971e-01 7.886103e-01 -2.902270e+00 44 49 50
-4.199318e-01 7.976970e-01 -2.892059e+00 31 34 39
-2.313785e-03 7.834271e-01 -2.808669e+00 42 44 55
-7.618717e-03 7.877594e-01 -2.810372e+00 179 176 177
-4.628564e-01 8.403660e-01 -2.907560e+00 37 38 42
1.165708e+00 5.945324e-01 -2.956693e+00 64 56 56
-5.458252e-02 8.309001e-01 -2.820942e+00 53 52 73
-3.781465e-02 8.470094e-01 -2.826965e+00 58 60 73
1.255210e+00 6.117823e-01 -2.978025e+00 106 84 95
1.303504e+00 6.524399e-01 -2.988224e+00 63 45 43
5.426222e-03 8.815543e-01 -2.941624e+00 13 23 15
-3.119869e-01 9.997401e-01 -2.822811e+00 45 43 64
-5.863393e-02 9.627980e-01 -2.849240e+00 114 122 124
2.785205e-01 9.787429e-01 -2.960155e+00 27 29 25
-1.220673e-01 1.131297e+00 -2.910269e+00 189 157 164
8.003346e-01 9.436781e-01 -2.912109e+00 175 144 139
1.003022e-01 1.088864e+00 -3.023830e+00 54 53 58
1.029210e+00 9.460144e-01 -3.005966e+00 189 173 163
-9.514517e-02 1.175541e+00 -2.956233e+00 43 42 48
-9.656937e-02 1.180458e+00 -2.948041e+00 100 108 110
-1.039665e-01 1.183793e+00 -2.931455e+00 86 91 92
2.169440e-01 1.135020e+00 -3.018633e+00 26 28 34
2.198889e-01 1.152779e+00 -3.030376e+00 23 26 33
-1.573637e-02 1.241142e+00 -2.958225e+00 113 127 136
-1.141268e-01 1.291118e+00 -2.924886e+00 183 185 184
1.403144e+00 1.066302e+00 -3.140637e+00 164 151 161
5.315248e-02 1.254609e+00 -2.966741e+00 154 134 129
1.038812e-01 1.248209e+00 -2.975706e+00 27 30 45
1.385322e+00 1.120787e+00 -3.173014e+00 175 164 146
2.727635e-01 1.230235e+00 -3.037659e+00 89 80 86
2.727635e-01 1.230235e+00 -3.037659e+00 89 80 86
1.289652e+00 1.146441e+00 -3.149653e+00 178 160 146
2.125571e-01 1.304581e+00 -3.037723e+00 25 26 18
4.201754e-01 1.252380e+00 -3.068118e+00 162 149 133
4.211045e-01 1.251487e+00 -3.064594e+00 162 149 133
5.039746e-01 1.234197e+00 -3.060431e+00 162 144 128
2.265235e-01 1.310186e+00 -3.046474e+00 69 76 60
2.482137e-01 1.337736e+00 -3.042798e+00 46 49 41
1.315710e-01 3.019128e-01 -2.752900e+00 160 167 175
1.472680e-01 3.007187e-01 -2.755458e+00 34 34 44
5.074667e-01 3.419219e-01 -2.719180e+00 123 121 123
1.166409e-01 3.425788e-01 -2.762024e+00 124 119 123
8.780290e-01 2.050645e-01 -2.796909e+00 163 144 114
1.075305e-01 3.776068e-01 -2.768418e+00 142 141 139
1.464815e-01 3.769031e-01 -2.770952e+00 161 157 156
9.943416e-01 2.276609e-01 -2.821004e+00 205 191 180
8.861231e-02 4.584029e-01 -2.785701e+00 174 173 171
4.478663e-01 4.776957e-01 -2.726867e+00 40 35 42
4.478663e-01 4.776957e-01 -2.726867e+00 40 35 42
4.695189e-01 4.792328e-01 -2.730054e+00 58 49 54
-2.552294e-01 5.372313e-01 -2.693228e+00 29 34 30
4.654866e-01 5.188078e-01 -2.735834e+00 69 67 78
1.002121e+00 3.354233e-01 -2.852066e+00 170 156 130
1.092732e+00 3.443534e-01 -2.812394e+00 107 105 119
4.655602e-01 5.372237e-01 -2.741348e+00 70 63 75
1.132936e+00 3.845035e-01 -2.813287e+00 242 240 243
-1.001149e-01 5.673684e-01 -2.847432e+00 25 32 44
2.051461e-01 5.998722e-01 -2.860094e+00 171 166 171
-3.861910e-01 7.423998e-01 -2.808152e+00 21 26 37
-3.838325e-01 7.596479e-01 -2.780111e+00 58 78 79
-3.843768e-01 7.643660e-01 -2.791859e+00 36 31 40
-3.840088e-01 7.602525e-01 -2.848958e+00 33 38 43
-3.891650e-01 8.026364e-01 -2.902888e+00 41 50 57
-3.891650e-01 8.026364e-01 -2.902888e+00 41 50 57
-2.959989e-01 8.612555e-01 -2.936878e+00 16 17 21
1.260473e+00 6.067532e-01 -2.971780e+00 224 196 185
1.143392e+00 6.737972e-01 -2.976233e+00 138 126 100
1.867699e-02 8.866697e-01 -2.946309e+00 92 111 63
9.421903e-01 9.648459e-01 -2.994524e+00 176 165 147
1.029903e+00 9.939087e-01 -3.028381e+00 186 173 161
-4.000716e-02 1.238121e+00 -2.915937e+00 124 137 145
1.395614e+00 1.059046e+00 -3.140155e+00 213 200 191
1.412453e+00 1.075668e+00 -3.150900e+00 171 155 156
1.419317e+00 1.092657e+00 -3.162976e+00 171 155 158
1.419317e+00 1.092657e+00 -3.162976e+00 171 155 158
2.604340e-01 1.212138e+00 -3.031063e+00 79 72 76
1.294909e-01 1.251979e+00 -2.982471e+00 46 51 63
5.988545e-02 1.283876e+00 -2.984315e+00 61 66 72
2.390096e-01 1.309544e+00 -3.047181e+00 114 116 99
2.501398e-01 1.311775e+00 -3.042202e+00 54 56 48
4.404197e-01 1.294209e+00 -3.078237e+00 99 94 75
2.553787e-01 1.364641e+00 -3.067049e+00 123 130 132
2.593024e-01 1.376494e+00 -3.084175e+00 42 43 57
8.545334e-01 1.530904e-01 -2.778557e+00 50 44 27
1.067444e-01 3.360851e-01 -2.755038e+00 93 89 90
5.173462e-01 3.676253e-01 -2.724595e+00 121 121 124
9.966219e-01 3.095131e-01 -2.846504e+00 55 46 48
1.096213e+00 3.387149e-01 -2.792284e+00 246 240 243
-2.068991e-01 5.470050e-01 -2.804370e+00 21 25 28
1.446318e-01 5.374178e-01 -2.811992e+00 48 36 33
1.095756e+00 3.715692e-01 -2.834800e+00 93 100 82
6.563195e-02 5.559509e-01 -2.809231e+00 154 153 151
-1.998797e-01 5.635752e-01 -2.842772e+00 169 162 155
-1.998797e-01 5.635752e-01 -2.842772e+00 169 162 155
8.119473e-02 5.661320e-01 -2.812692e+00 174 173 168
2.012502e-01 5.719680e-01 -2.852190e+00 183 176 178
-2.640166e-01 6.126468e-01 -2.875693e+00 39 48 57
-3.620649e-01 6.976598e-01 -2.750610e+00 45 37 45
-3.232061e-01 6.455584e-01 -2.866693e+00 20 23 28
-3.463908e-01 6.865913e-01 -2.808142e+00 41 40 47
-3.637170e-01 7.169772e-01 -2.799045e+00 51 72 73
1.776677e-01 6.866626e-01 -2.804380e+00 160 157 158
-3.854627e-01 7.518503e-01 -2.826644e+00 27 27 33
-3.903801e-01 7.689733e-01 -2.894381e+00 34 39 45
-4.109559e-01 8.067157e-01 -2.809733e+00 99 101 98
-4.081868e-01 7.876954e-01 -2.873359e+00 59 61 60
-2.079354e-02 7.925786e-01 -2.811288e+00 45 51 66
-4.675557e-01 8.419741e-01 -2.894717e+00 81 77 74
-5.076795e-01 8.761858e-01 -2.903559e+00 95 90 85
-5.185677e-01 8.873914e-01 -2.876726e+00 108 101 93
1.134716e+00 6.918292e-01 -2.979639e+00 162 148 119
1.270439e+00 7.000919e-01 -3.015736e+00 170 155 148
1.343464e+00 7.361040e-01 -3.014811e+00 204 166 153
-1.167357e-01 1.148674e+00 -2.999947e+00 90 89 85
1.566721e+00 9.808123e-01 -3.166444e+00 255 254 251
1.544212e-01 1.183742e+00 -2.955978e+00 36 38 51
9.233546e-02 1.242830e+00 -2.975413e+00 136 136 136
6.241220e-02 1.254119e+00 -2.976757e+00 30 36 48
1.437822e+00 1.114845e+00 -3.170846e+00 216 196 186
5.038168e-01 1.164368e+00 -3.029543e+00 145 128 118
3.420134e-01 1.228169e+00 -3.054963e+00 180 175 171
3.607004e-01 1.237895e+00 -3.060618e+00 128 120 110
3.582595e-01 1.254955e+00 -3.066585e+00 137 131 122
4.175478e-01 1.263082e+00 -3.067728e+00 81 71 59
4.901025e-01 1.262177e+00 -3.068265e+00 143 135 117
1.793785e-01 4.009229e-01 -2.792516e+00 22 24 23
9.715243e-01 3.126592e-01 -2.837106e+00 167 150 124
1.058039e+00 3.415052e-01 -2.842900e+00 238 234 231
-1.893099e-01 5.836594e-01 -2.829579e+00 171 163 155
-1.893099e-01 5.836594e-01 -2.829579e+00 171 163 155
8.560405e-02 5.825248e-01 -2.822076e+00 171 160 146
-3.413701e-01 6.639467e-01 -2.803699e+00 24 34 41
-3.647128e-01 7.291274e-01 -2.765428e+00 60 86 83
-3.881488e-01 7.749038e-01 -2.799716e+00 103 105 100
7.795339e-01 6.289222e-01 -2.821603e+00 50 61 79
-4.167755e-01 8.158511e-01 -2.780064e+00 193 191 192
-9.705300e-03 8.804450e-01 -2.939649e+00 83 111 70
1.314815e+00 7.168984e-01 -3.022252e+00 190 176 167
1.314815e+00 7.168984e-01 -3.022252e+00 190 176 167
-2.394482e-01 1.009743e+00 -2.835413e+00 123 121 127
3.917128e-01 1.105905e+00 -3.003235e+00 146 147 144
1.354059e+00 1.041271e+00 -3.119883e+00 176 164 140
3.720215e-01 1.170922e+00 -3.034772e+00 77 75 60
1.413463e+00 1.124891e+00 -3.185104e+00 209 192 183
2.593402e-01 1.239124e+00 -3.010201e+00 23 28 31
5.246862e-01 1.208234e+00 -3.041784e+00 64 56 48
1.012576e+00 2.656945e-01 -2.820784e+00 221 212 195
1.012576e+00 2.656945e-01 -2.820784e+00 221 212 195
-5.200534e-02 5.146674e-01 -2.840310e+00 63 71 84
-2.062539e-01 5.806289e-01 -2.778996e+00 75 93 118
-2.062539e-01 5.806289e-01 -2.778996e+00 75 93 118
4.859119e-01 5.841005e-01 -2.751694e+00 182 158 146
-3.333567e-01 6.615446e-01 -2.821381e+00 39 58 62
1.097736e+00 5.275166e-01 -2.846923e+00 93 99 59
-2.637510e-01 9.846725e-01 -2.817970e+00 22 25 32
-7.610866e-02 1.001085e+00 -2.828140e+00 158 125 132
4.176834e-01 1.179173e+00 -3.035445e+00 33 40 37
1.345155e+00 1.146345e+00 -3.169840e+00 183 167 154
2.935426e-01 1.266942e+00 -3.051604e+00 28 29 28
1.391322e+00 1.191584e+00 -3.200174e+00 200 191 184
5.128535e-01 1.268120e+00 -3.055989e+00 177 165 158
8.505559e-02 5.610756e-01 -2.831629e+00 32 32 34
-9.014295e-02 9.970170e-01 -2.814722e+00 36 35 46
8.040675e-01 8.744081e-01 -2.838899e+00 210 145 153
3.779983e-01 1.247269e+00 -3.058584e+00 180 175 169
-8.524943e-02 1.405449e+00 -2.940109e+00 199 200 194
3.488656e-01 1.272362e+00 -3.069178e+00 179 174 170
2.627205e-01 1.304487e+00 -3.046686e+00 169 175 173
1.396978e+00 1.246092e+00 -3.229907e+00 178 210 205
3.492961e-01 1.307068e+00 -3.072798e+00 51 56 67
8.954573e-01 1.993307e-01 -2.775245e+00 55 55 33
9.321192e-01 1.833754e-01 -2.790308e+00 181 174 166
-3.937467e-02 3.645953e-01 -2.791658e+00 162 158 155
9.412714e-01 2.930642e-01 -2.827384e+00 181 165 133
-2.672446e-01 6.275543e-01 -2.783835e+00 35 51 51
-3.195808e-01 1.077938e+00 -2.895317e+00 27 31 42
4.592391e-02 1.062533e+00 -3.006468e+00 52 61 76
-7.683732e-02 1.200691e+00 -2.938961e+00 61 56 61
1.232661e-02 1.267967e+00 -2.957749e+00 105 124 136
4.055901e-01 5.440545e-01 -2.695409e+00 60 66 77
-2.437215e-01 1.016602e+00 -2.880332e+00 47 49 61
-2.688100e-01 1.058366e+00 -2.892936e+00 201 201 199
1.107851e+00 9.686535e-01 -3.055626e+00 91 79 80
1.750986e-01 1.166002e+00 -2.967001e+00 48 45 54
3.236699e-01 1.224607e+00 -3.055552e+00 178 173 169
2.434136e-01 1.281397e+00 -3.051422e+00 28 31 38
5.652157e-01 4.134895e-01 -2.764399e+00 27 27 27
-1.737490e-01 4.541077e-01 -2.776088e+00 201 202 197
1.080738e+00 3.163398e-01 -2.791631e+00 126 123 109
2.655134e-02 6.898911e-01 -2.855270e+00 24 24 30
-1.084738e-01 6.639455e-01 -2.836870e+00 26 30 37
8.264585e-04 1.019708e+00 -2.994499e+00 16 17 19
7.274277e-01 -6.137634e-03 -2.652620e+00 211 214 225
9.637396e-01 -2.908693e-02 -2.750320e+00 18 24 11
1.025791e+00 -2.905256e-02 -2.749493e+00 34 38 18
1.279334e+00 2.334605e-03 -2.681201e+00 107 116 125
1.109714e+00 -1.386607e-02 -2.750499e+00 241 241 240
9.233472e-01 -8.337903e-03 -2.799443e+00 35 33 24
1.020632e+00 5.382361e-04 -2.806462e+00 157 142 124
7.509834e-01 6.664176e-02 -2.743147e+00 137 135 134
1.146823e+00 3.190193e-02 -2.755690e+00 228 227 232
1.144187e+00 3.063289e-02 -2.764421e+00 249 248 245
1.146305e+00 3.331404e-02 -2.765596e+00 249 246 246
8.954735e-01 4.450408e-02 -2.803400e+00 66 60 62
9.394179e-01 4.815853e-02 -2.812164e+00 64 54 50
7.731987e-01 7.639122e-02 -2.793211e+00 17 17 28
1.047003e+00 4.787211e-02 -2.806634e+00 119 120 173
6.948547e-01 1.933915e-01 -2.634904e+00 201 195 206
1.014684e+00 7.344762e-02 -2.812581e+00 138 126 99
1.021229e+00 9.899378e-02 -2.816415e+00 222 215 192
5.460602e-01 2.150946e-01 -2.692298e+00 152 148 149
6.249720e-01 2.260106e-01 -2.702626e+00 248 247 251
6.249720e-01 2.260106e-01 -2.702626e+00 248 247 251
1.230072e+00 1.431762e-01 -2.803841e+00 230 227 235
9.669244e-01 1.676028e-01 -2.824118e+00 122 113 106
5.960140e-01 2.629482e-01 -2.707606e+00 86 86 86
1.260218e+00 1.821929e-01 -2.785266e+00 241 232 242
6.292267e-01 2.799352e-01 -2.715126e+00 208 202 193
6.292267e-01 2.799352e-01 -2.715126e+00 208 202 193
6.117260e-01 2.890835e-01 -2.711695e+00 190 186 186
5.292654e-01 3.137135e-01 -2.704413e+00 122 123 125
5.988630e-01 3.252868e-01 -2.708296e+00 182 181 187
5.190211e-01 3.435088e-01 -2.708410e+00 172 165 145
5.166870e-01 3.446639e-01 -2.711517e+00 158 154 143
5.201275e-01 3.476867e-01 -2.711987e+00 128 124 135
1.252678e+00 2.907277e-01 -2.787667e+00 48 43 61
1.285469e+00 2.912172e-01 -2.793244e+00 218 218 207
1.273540e+00 2.933834e-01 -2.794548e+00 161 162 166
1.270674e+00 2.954788e-01 -2.794357e+00 160 159 164
1.274923e+00 2.954869e-01 -2.795348e+00 172 172 174
1.274671e+00 3.021035e-01 -2.796566e+00 174 175 177
3.453316e-01 4.523732e-01 -2.701866e+00 211 194 201
3.831759e-01 4.886180e-01 -2.672610e+00 182 180 174
3.875394e-01 4.894259e-01 -2.673311e+00 136 136 127
1.218210e+00 3.579550e-01 -2.789391e+00 160 154 156
1.186258e+00 3.764095e-01 -2.783541e+00 165 161 159
1.381514e+00 3.667739e-01 -2.889848e+00 88 90 99
4.948013e-01 5.081246e-01 -2.722613e+00 164 163 161
3.387881e-01 5.660629e-01 -2.689255e+00 211 188 209
4.911350e-01 5.318962e-01 -2.727610e+00 175 170 168
1.393036e+00 4.096845e-01 -2.919742e+00 172 158 127
1.503676e+00 4.262391e-01 -2.981325e+00 54 49 64
1.494884e+00 4.278720e-01 -3.005627e+00 220 215 209
1.377375e+00 4.653304e-01 -2.990860e+00 179 165 157
1.497497e+00 4.571301e-01 -3.027676e+00 223 209 199
1.853777e-01 6.730645e-01 -2.805338e+00 56 70 95
2.187765e-01 6.932306e-01 -2.805003e+00 61 62 54
1.165501e-01 7.449835e-01 -2.807391e+00 40 46 48
1.344428e+00 5.260070e-01 -2.958636e+00 187 175 147
1.272658e+00 5.369236e-01 -2.983263e+00 124 111 110
2.694829e-01 7.200995e-01 -2.877184e+00 27 25 41
1.272133e+00 5.408555e-01 -2.985155e+00 174 165 157
2.385457e-01 7.307084e-01 -2.796309e+00 136 135 138
2.402478e-01 7.347308e-01 -2.787705e+00 139 146 135
2.449004e-01 7.360562e-01 -2.808731e+00 93 99 106
-7.505872e-02 8.333804e-01 -2.828112e+00 68 70 85
3.893857e-02 8.026562e-01 -2.821672e+00 104 102 93
5.278601e-01 6.626700e-01 -2.758385e+00 173 171 171
-7.490476e-02 8.416359e-01 -2.829132e+00 151 146 168
1.239085e+00 5.674861e-01 -2.980679e+00 76 66 65
3.892861e-01 7.193747e-01 -2.887903e+00 149 138 128
1.242443e+00 5.792804e-01 -2.985075e+00 67 60 62
1.238888e+00 5.808030e-01 -2.984744e+00 180 168 163
4.669122e-01 7.414562e-01 -2.762504e+00 125 124 126
1.511460e+00 6.135305e-01 -2.932869e+00 218 170 182
5.172496e-01 7.756680e-01 -2.790672e+00 77 36 38
5.261836e-01 7.847016e-01 -2.873840e+00 47 48 45
1.296131e+00 6.847365e-01 -3.025287e+00 182 161 156
4.295074e-01 8.229713e-01 -2.793319e+00 89 98 92
1.429443e+00 6.797091e-01 -2.969136e+00 165 162 169
1.267918e+00 7.020020e-01 -3.021879e+00 157 140 144
4.514717e-01 8.276564e-01 -2.798563e+00 198 191 179
1.265243e+00 7.091448e-01 -3.020837e+00 254 250 241
4.056706e-01 8.517887e-01 -2.786696e+00 237 222 213
5.052288e-01 8.266428e-01 -2.807099e+00 217 208 210
1.136306e+00 7.317954e-01 -3.002771e+00 72 68 51
1.341906e+00 7.207685e-01 -2.997795e+00 236 217 203
1.146350e+00 7.368792e-01 -3.005944e+00 147 136 118
4.637130e-01 8.474631e-01 -2.754838e+00 144 153 150
4.410502e-01 8.773041e-01 -2.771961e+00 55 64 72
5.754674e-01 8.404960e-01 -2.823172e+00 124 99 108
4.536139e-01 8.800954e-01 -2.774657e+00 215 209 227
4.454857e-01 8.864486e-01 -2.767977e+00 120 130 109
4.461531e-01 8.891746e-01 -2.770455e+00 120 129 100
4.916165e-01 8.804389e-01 -2.771295e+00 137 140 133
4.916165e-01 8.804389e-01 -2.771295e+00 137 140 133
5.760506e-01 8.545670e-01 -2.786261e+00 153 155 170
7.081551e-01 8.623982e-01 -2.877792e+00 168 134 132
1.223726e+00 7.999089e-01 -2.963849e+00 181 172 134
6.088030e-01 9.246887e-01 -2.973234e+00 170 181 161
1.247095e+00 8.031160e-01 -2.974265e+00 64 59 29
6.968800e-01 8.765468e-01 -2.881497e+00 138 121 132
7.221847e-01 8.762758e-01 -2.884334e+00 170 161 157
7.005350e-01 9.084859e-01 -2.890846e+00 212 170 170
7.135441e-01 9.099588e-01 -2.893887e+00 210 174 170
9.593673e-01 8.916679e-01 -2.986001e+00 53 52 61
7.077168e-01 9.263477e-01 -2.896451e+00 62 32 28
7.408028e-01 9.292499e-01 -2.907537e+00 142 133 143
1.068896e+00 8.935602e-01 -3.003545e+00 214 211 198
7.353095e-01 9.365028e-01 -2.907015e+00 213 178 182
7.256977e-01 -3.325083e-02 -2.663356e+00 193 185 200
1.230822e+00 -4.921219e-02 -2.691152e+00 241 234 248
5.396397e-01 5.565171e-02 -2.635916e+00 94 87 105
5.703325e-01 6.573121e-02 -2.643585e+00 210 192 199
7.386277e-01 2.905717e-02 -2.721394e+00 243 249 243
1.224514e+00 -1.037204e-02 -2.707636e+00 99 87 87
7.713710e-01 2.849211e-02 -2.740882e+00 166 162 166
5.434014e-01 9.693317e-02 -2.644753e+00 208 206 213
1.013643e+00 -3.991877e-03 -2.803068e+00 55 46 36
1.150243e+00 2.982026e-02 -2.724858e+00 233 229 233
8.179687e-01 4.608810e-02 -2.753353e+00 171 171 174
1.160265e+00 4.393199e-02 -2.728877e+00 244 243 245
7.021517e-01 1.623523e-01 -2.636989e+00 125 122 134
9.351062e-01 4.895430e-02 -2.813205e+00 99 87 92
9.547183e-01 7.156527e-02 -2.798589e+00 39 35 25
9.455159e-01 8.345618e-02 -2.800233e+00 75 66 41
9.368978e-01 8.170255e-02 -2.813956e+00 177 170 159
1.001328e+00 1.072188e-01 -2.812339e+00 171 145 118
1.008418e+00 1.072999e-01 -2.815927e+00 82 71 50
9.576970e-01 1.229144e-01 -2.804547e+00 65 49 41
9.599072e-01 1.307469e-01 -2.808791e+00 240 220 208
9.590194e-01 1.325867e-01 -2.810074e+00 141 124 108
9.612867e-01 1.341964e-01 -2.809776e+00 214 191 173
9.603662e-01 1.364628e-01 -2.810838e+00 130 113 96
5.765814e-01 2.227697e-01 -2.698795e+00 180 179 175
9.690390e-01 1.425561e-01 -2.810099e+00 55 32 27
1.227092e+00 1.351473e-01 -2.767770e+00 211 204 218
4.681038e-01 2.435393e-01 -2.680441e+00 179 179 179
4.595894e-01 2.525274e-01 -2.683266e+00 174 172 177
4.595894e-01 2.525274e-01 -2.683266e+00 174 172 177
5.215497e-01 2.588900e-01 -2.691096e+00 191 188 181
5.048633e-01 2.623448e-01 -2.686377e+00 152 152 150
4.741343e-01 2.643193e-01 -2.687313e+00 168 166 169
6.500855e-01 2.442120e-01 -2.712302e+00 137 139 134
5.451884e-01 2.596100e-01 -2.696792e+00 147 146 144
5.050121e-01 2.762350e-01 -2.692241e+00 162 160 161
5.193824e-01 2.761370e-01 -2.691606e+00 188 186 181
1.258531e+00 1.866343e-01 -2.789367e+00 231 229 240
6.064494e-01 3.238888e-01 -2.712189e+00 169 169 169
1.179780e+00 3.100287e-01 -2.766879e+00 155 152 153
1.179780e+00 3.100287e-01 -2.766879e+00 155 152 153
1.265883e+00 2.955091e-01 -2.792483e+00 131 132 136
4.387304e-01 4.024115e-01 -2.779178e+00 225 227 218
1.196049e+00 3.206951e-01 -2.775120e+00 165 163 166
4.731395e-01 4.013065e-01 -2.811371e+00 188 187 190
1.181887e+00 3.279138e-01 -2.773559e+00 154 150 151
3.314523e-01 4.578271e-01 -2.698787e+00 155 155 149
1.407423e+00 3.606021e-01 -2.896001e+00 183 174 168
4.371141e-01 5.166990e-01 -2.719454e+00 44 44 58
4.366272e-01 5.238622e-01 -2.716994e+00 104 111 120
1.292158e+00 4.145550e-01 -2.871429e+00 177 175 175
1.302645e+00 4.262436e-01 -2.876148e+00 178 174 171
4.018772e-01 5.770306e-01 -2.696143e+00 211 189 172
1.402729e+00 4.365468e-01 -2.994468e+00 176 173 168
4.026812e-01 5.981432e-01 -2.734243e+00 55 53 65
2.222931e-01 6.765457e-01 -2.866223e+00 102 93 98
2.275847e-01 7.050309e-01 -2.820053e+00 70 66 64
2.275847e-01 7.050309e-01 -2.820053e+00 70 66 64
3.413813e-01 6.804026e-01 -2.809421e+00 218 195 211
1.253783e-01 7.443713e-01 -2.817535e+00 177 175 175
3.154393e-02 7.761115e-01 -2.826170e+00 139 143 150
3.069805e-02 7.761261e-01 -2.827457e+00 139 143 150
2.508423e-01 7.162453e-01 -2.878441e+00 28 33 33
4.066707e-02 7.861484e-01 -2.857691e+00 58 56 57
-7.283860e-02 8.288046e-01 -2.824427e+00 86 90 107
2.476713e-01 7.317990e-01 -2.866157e+00 45 45 35
2.454921e-01 7.417454e-01 -2.800524e+00 147 146 141
5.539800e-01 7.102408e-01 -2.819556e+00 228 223 226
4.708106e-01 7.519210e-01 -2.763252e+00 37 39 62
1.268864e+00 6.347068e-01 -3.004955e+00 229 219 215
4.940151e-01 7.752486e-01 -2.775596e+00 205 197 197
5.405959e-01 8.082913e-01 -2.893386e+00 48 52 53
4.981827e-01 8.225769e-01 -2.804633e+00 179 175 166
4.625624e-01 8.356783e-01 -2.757352e+00 227 197 189
1.138809e+00 7.305226e-01 -3.003651e+00 149 143 119
1.150243e+00 7.434990e-01 -3.009957e+00 145 139 104
6.657452e-01 8.281223e-01 -2.946366e+00 81 82 86
4.392816e-01 8.803005e-01 -2.772585e+00 20 26 37
5.064087e-01 8.780386e-01 -2.783378e+00 217 215 205
4.754841e-01 8.994240e-01 -2.786345e+00 202 197 204
7.139744e-01 8.630521e-01 -2.879334e+00 135 123 127
6.172489e-01 9.340958e-01 -2.976815e+00 194 191 188
7.060789e-01 8.825638e-01 -2.885174e+00 205 181 175
6.829087e-01 8.907712e-01 -2.872396e+00 251 246 238
7.044247e-01 9.034962e-01 -2.889989e+00 143 127 130
6.835919e-01 9.094021e-01 -2.881755e+00 254 250 241
6.987089e-01 9.104746e-01 -2.891175e+00 94 65 85
6.862427e-01 9.126589e-01 -2.881383e+00 253 249 234
7.340180e-01 9.058974e-01 -2.896997e+00 145 132 136
9.597813e-01 8.889462e-01 -2.988838e+00 175 175 160
7.206198e-01 9.270298e-01 -2.900707e+00 89 67 85
7.198884e-01 9.368841e-01 -2.895125e+00 252 242 230
1.017811e+00 -6.770150e-02 -2.727912e+00 43 47 31
1.018126e+00 -3.506958e-02 -2.746535e+00 68 69 52
5.570995e-01 5.928051e-02 -2.641152e+00 228 217 213
7.321769e-01 2.460643e-02 -2.723073e+00 42 45 35
1.212521e+00 -9.183245e-03 -2.704804e+00 189 190 192
7.632977e-01 3.509030e-02 -2.739555e+00 138 127 130
1.114362e+00 -6.934818e-03 -2.758266e+00 183 184 189
9.992527e-01 -1.764160e-02 -2.796485e+00 31 33 32
9.992527e-01 -1.764160e-02 -2.796485e+00 31 33 32
7.600295e-01 4.047230e-02 -2.739723e+00 124 116 118
7.570629e-01 4.476679e-02 -2.740273e+00 126 119 123
1.009865e+00 -1.427908e-03 -2.803115e+00 57 50 37
1.225689e+00 3.096728e-02 -2.710583e+00 140 130 131
1.225689e+00 3.096728e-02 -2.710583e+00 140 130 131
1.134792e+00 2.179670e-02 -2.762213e+00 221 217 218
9.233842e-01 4.155540e-02 -2.809469e+00 45 45 45
9.157992e-01 4.951504e-02 -2.805923e+00 72 66 72
1.140941e+00 3.280062e-02 -2.791143e+00 242 241 246
1.140941e+00 3.280062e-02 -2.791143e+00 242 241 246
6.966653e-01 1.822057e-01 -2.642785e+00 33 36 45
9.511584e-01 7.928508e-02 -2.797449e+00 43 28 19
1.068410e+00 5.865447e-02 -2.822775e+00 121 120 118
4.958975e-01 1.873206e-01 -2.691191e+00 116 116 116
9.561222e-01 1.106983e-01 -2.801897e+00 55 42 32
5.862064e-01 1.992231e-01 -2.695892e+00 158 154 151
5.319748e-01 2.062375e-01 -2.689085e+00 149 148 145
5.541518e-01 2.050188e-01 -2.691664e+00 183 179 180
6.276935e-01 2.308315e-01 -2.702439e+00 251 250 247
5.859893e-01 2.381548e-01 -2.702804e+00 185 183 192
1.001825e+00 1.518566e-01 -2.823223e+00 182 167 131
5.040984e-01 2.650267e-01 -2.690086e+00 162 161 156
6.318747e-01 2.739708e-01 -2.668161e+00 172 169 164
1.190724e+00 3.008048e-01 -2.769535e+00 153 150 148
4.364979e-01 4.023348e-01 -2.777342e+00 31 33 41
4.012011e-01 4.812720e-01 -2.713183e+00 76 74 98
4.005555e-01 4.901207e-01 -2.708992e+00 119 133 152
3.709825e-01 5.083951e-01 -2.676240e+00 193 173 175
4.218180e-01 5.422967e-01 -2.686024e+00 119 125 125
1.507818e+00 4.542268e-01 -3.024935e+00 198 189 178
2.154882e-01 6.712489e-01 -2.850930e+00 126 118 105
1.400181e+00 4.796657e-01 -3.001104e+00 208 154 152
2.212311e-01 6.754415e-01 -2.873878e+00 90 80 78
1.378555e+00 4.948078e-01 -2.998325e+00 214 170 147
1.180714e-01 7.472094e-01 -2.809166e+00 118 122 128
2.899453e-02 7.724402e-01 -2.829710e+00 26 28 39
3.192724e-02 7.779227e-01 -2.831153e+00 23 26 36
2.692586e-01 7.170027e-01 -2.878676e+00 110 110 110
2.692586e-01 7.170027e-01 -2.878676e+00 110 110 110
2.692586e-01 7.170027e-01 -2.878676e+00 110 110 110
4.263559e-02 7.906979e-01 -2.859632e+00 59 54 58
5.369703e-01 6.525349e-01 -2.757132e+00 180 180 180
2.483191e-01 7.408908e-01 -2.838441e+00 125 120 113
2.554665e-01 7.505913e-01 -2.847914e+00 47 53 56
2.602028e-01 7.505956e-01 -2.872282e+00 42 41 36
2.661618e-01 7.507095e-01 -2.894633e+00 33 32 38
2.681067e-01 7.769264e-01 -2.832339e+00 144 143 138
1.277054e+00 6.031330e-01 -2.941217e+00 232 223 212
5.496509e-01 7.084853e-01 -2.772704e+00 49 36 45
1.268391e+00 6.383440e-01 -3.007272e+00 113 109 112
1.450447e+00 6.721690e-01 -2.975350e+00 197 191 193
4.298736e-01 8.163552e-01 -2.789887e+00 97 100 113
1.204374e+00 6.907914e-01 -3.009261e+00 155 146 113
6.771949e-01 8.232588e-01 -2.943820e+00 80 68 84
4.489433e-01 8.923895e-01 -2.774874e+00 120 127 116
8.764727e-01 8.405778e-01 -2.977172e+00 34 34 43
8.814098e-01 8.517581e-01 -2.972793e+00 16 19 26
6.006563e-01 9.342379e-01 -2.973367e+00 76 72 98
5.978557e-01 9.404381e-01 -2.974644e+00 47 41 54
6.912094e-01 8.934898e-01 -2.881767e+00 69 47 55
6.912094e-01 8.934898e-01 -2.881767e+00 69 47 55
7.089446e-01 9.200212e-01 -2.895124e+00 80 54 77
8.049936e-01 8.871276e-01 -2.855412e+00 67 36 82
9.191176e-01 -1.143594e-01 -2.736524e+00 109 111 87
9.213415e-01 -1.074423e-01 -2.735599e+00 45 46 34
9.360354e-01 -4.331058e-02 -2.729891e+00 34 34 32
1.217187e+00 -5.725780e-02 -2.699895e+00 154 154 162
5.477710e-01 7.670070e-02 -2.637254e+00 252 253 252
7.332314e-01 3.126791e-02 -2.750370e+00 185 139 131
1.284464e+00 2.056823e-02 -2.691483e+00 209 202 196
9.831928e-01 -1.369497e-03 -2.797191e+00 161 153 132
1.002916e+00 -1.756337e-03 -2.801846e+00 44 39 30
9.848773e-01 2.735630e-03 -2.799736e+00 47 39 40
7.832922e-01 6.535094e-02 -2.749363e+00 166 162 161
1.084935e+00 1.077321e-02 -2.799284e+00 167 175 90
1.000583e+00 2.881039e-02 -2.804955e+00 162 157 127
1.054478e+00 4.799454e-02 -2.810754e+00 40 43 68
1.174697e+00 8.695235e-02 -2.771889e+00 231 230 235
4.841695e-01 2.167102e-01 -2.684202e+00 81 80 84
4.845124e-01 2.206769e-01 -2.682316e+00 164 162 163
5.853367e-01 2.313091e-01 -2.700396e+00 168 168 178
5.209731e-01 2.391053e-01 -2.692675e+00 151 149 150
5.160968e-01 2.469191e-01 -2.688938e+00 130 125 129
4.596587e-01 2.614186e-01 -2.687364e+00 141 141 140
5.813541e-01 2.908026e-01 -2.705533e+00 145 145 143
5.807175e-01 3.316327e-01 -2.712781e+00 137 137 137
1.398722e+00 2.201115e-01 -2.809945e+00 128 137 99
1.401938e+00 2.247917e-01 -2.814731e+00 69 68 56
1.401938e+00 2.247917e-01 -2.814731e+00 69 68 56
1.202634e+00 2.983852e-01 -2.773048e+00 155 150 154
1.202677e+00 2.983383e-01 -2.773209e+00 155 150 154
1.262377e+00 2.888864e-01 -2.790282e+00 150 149 154
1.283172e+00 2.908749e-01 -2.795044e+00 63 63 62
1.255796e+00 3.191735e-01 -2.793706e+00 145 141 142
1.246563e+00 3.325356e-01 -2.794228e+00 171 170 168
1.210414e+00 3.443906e-01 -2.784106e+00 190 186 187
4.266024e-01 5.202774e-01 -2.679587e+00 120 134 141
1.319914e+00 3.833298e-01 -2.869940e+00 188 182 184
4.374861e-01 5.283607e-01 -2.717455e+00 105 106 116
1.202990e+00 4.089692e-01 -2.827846e+00 26 30 30
4.406220e-01 5.424294e-01 -2.730410e+00 35 28 34
4.300889e-01 5.600769e-01 -2.700437e+00 43 54 71
1.495028e+00 4.392990e-01 -3.017168e+00 216 205 188
1.491609e+00 4.477812e-01 -3.023173e+00 252 243 234
2.190571e-01 6.776660e-01 -2.854631e+00 112 110 96
2.751915e-02 7.608603e-01 -2.836198e+00 104 97 91
2.696004e-01 7.170071e-01 -2.878243e+00 111 111 112
2.685110e-01 7.800434e-01 -2.800720e+00 112 113 117
1.362376e+00 6.019237e-01 -2.921538e+00 167 163 160
4.687616e-01 7.376819e-01 -2.767950e+00 200 139 155
1.245882e+00 6.306701e-01 -3.000789e+00 246 242 227
4.501743e-01 7.697757e-01 -2.781303e+00 49 50 63
1.287213e+00 6.383416e-01 -2.953522e+00 106 56 70
1.366611e+00 7.002413e-01 -2.950755e+00 169 163 164
1.218879e+00 7.799512e-01 -2.966545e+00 40 40 35
1.218879e+00 7.799512e-01 -2.966545e+00 40 40 35
5.719811e-01 9.294280e-01 -2.964240e+00 78 81 55
5.991228e-01 9.264861e-01 -2.976344e+00 62 70 73
6.893937e-01 8.858797e-01 -2.880565e+00 72 48 67
6.898144e-01 9.105213e-01 -2.880617e+00 90 78 74
1.228226e+00 -4.625188e-02 -2.701806e+00 86 83 108
5.712928e-01 6.508444e-02 -2.644543e+00 207 195 196
9.871369e-01 -1.687524e-02 -2.760242e+00 30 31 27
7.680284e-01 3.193846e-02 -2.740043e+00 28 26 37
1.068660e+00 -2.045763e-02 -2.785650e+00 133 127 113
5.606905e-01 1.003676e-01 -2.646762e+00 198 185 177
9.980011e-01 -1.020378e-02 -2.801260e+00 165 151 145
1.008091e+00 -1.097726e-03 -2.803413e+00 47 43 31
1.138171e+00 2.622579e-02 -2.768006e+00 195 191 188
8.136446e-01 6.689979e-02 -2.794615e+00 23 27 35
1.002689e+00 6.641554e-02 -2.810208e+00 167 151 117
5.500775e-01 2.029704e-01 -2.691275e+00 145 142 143
9.482357e-01 1.329199e-01 -2.815108e+00 175 168 159
4.876923e-01 2.297381e-01 -2.684180e+00 149 154 157
6.277323e-01 2.255365e-01 -2.706496e+00 38 34 41
4.936354e-01 2.470082e-01 -2.683872e+00 138 136 139
5.783248e-01 2.434358e-01 -2.702388e+00 48 63 73
4.592378e-01 2.584809e-01 -2.684674e+00 182 183 181
9.619221e-01 1.630265e-01 -2.824045e+00 138 125 116
5.242135e-01 2.747521e-01 -2.692212e+00 134 133 131
5.773561e-01 2.895330e-01 -2.704089e+00 128 126 127
1.207590e+00 3.024714e-01 -2.774564e+00 158 154 153
1.220554e+00 3.136161e-01 -2.781693e+00 149 147 148
1.245955e+00 3.120890e-01 -2.788960e+00 137 135 138
1.211619e+00 3.190412e-01 -2.778625e+00 149 144 148
1.226497e+00 3.386059e-01 -2.789035e+00 173 172 172
1.226497e+00 3.386059e-01 -2.789035e+00 173 172 172
1.235950e+00 3.484473e-01 -2.792517e+00 169 167 170
1.220742e+00 4.038548e-01 -2.834973e+00 136 150 93
4.432171e-01 5.419255e-01 -2.733860e+00 52 49 60
4.935454e-01 5.359616e-01 -2.732953e+00 47 46 44
1.652049e+00 3.919941e-01 -3.030592e+00 199 198 191
-5.162519e-02 7.805694e-01 -2.809683e+00 45 45 65
4.577354e-02 7.996752e-01 -2.861005e+00 112 102 98
2.532431e-01 7.451700e-01 -2.844976e+00 33 27 42
2.568982e-01 7.447560e-01 -2.850664e+00 139 135 129
1.944384e-01 7.724550e-01 -2.801017e+00 141 141 143
1.281651e+00 6.168010e-01 -2.945711e+00 137 125 109
1.308604e+00 6.464318e-01 -2.956704e+00 202 118 113
5.112538e-01 7.930646e-01 -2.781657e+00 212 212 200
1.225664e+00 6.967195e-01 -3.015714e+00 145 135 110
5.375247e-01 8.013711e-01 -2.799786e+00 59 36 57
1.425259e+00 6.996264e-01 -2.974182e+00 166 161 165
1.347628e+00 7.213024e-01 -2.989219e+00 198 116 121
4.740736e-01 8.454851e-01 -2.766184e+00 129 96 105
4.847956e-01 8.587281e-01 -2.815713e+00 46 50 53
4.478669e-01 8.765926e-01 -2.772374e+00 65 71 93
5.089040e-01 8.875657e-01 -2.782369e+00 133 82 91
5.811872e-01 9.449040e-01 -2.971981e+00 136 135 83
9.067593e-01 8.895616e-01 -2.981678e+00 33 36 42
7.492901e-01 9.112142e-01 -2.900677e+00 203 168 163
9.071188e-01 8.951919e-01 -2.964511e+00 21 19 24
5.684503e-01 3.535948e-02 -2.638417e+00 203 199 198
7.513143e-01 1.964704e-02 -2.669015e+00 55 48 50
1.032504e+00 -4.734362e-02 -2.738017e+00 32 32 25
9.842762e-01 -1.787681e-02 -2.754135e+00 77 96 68
9.902181e-01 -6.412195e-03 -2.798932e+00 144 127 119
6.508642e-01 1.240258e-01 -2.629735e+00 79 79 82
6.508642e-01 1.240258e-01 -2.629735e+00 79 79 82
9.846407e-01 8.350714e-03 -2.801374e+00 145 130 107
1.009150e+00 1.190941e-01 -2.819299e+00 186 169 143
9.650225e-01 1.324241e-01 -2.808681e+00 80 69 64
4.711641e-01 2.277082e-01 -2.681234e+00 38 46 50
4.711641e-01 2.277082e-01 -2.681234e+00 38 46 50
4.882251e-01 2.434165e-01 -2.683452e+00 164 164 163
5.941267e-01 2.336142e-01 -2.696555e+00 142 159 167
4.636162e-01 2.534653e-01 -2.684215e+00 179 178 179
5.740822e-01 2.540192e-01 -2.700132e+00 28 35 44
5.740822e-01 2.540192e-01 -2.700132e+00 28 35 44
5.591432e-01 2.806049e-01 -2.699801e+00 123 123 125
1.378839e+00 2.070210e-01 -2.806152e+00 154 164 141
5.756894e-01 3.499239e-01 -2.717896e+00 124 124 124
5.756894e-01 3.499239e-01 -2.717896e+00 124 124 124
5.185740e-01 3.716059e-01 -2.717017e+00 129 129 131
1.205567e+00 3.195224e-01 -2.777332e+00 151 149 152
1.200731e+00 3.409290e-01 -2.778637e+00 162 160 161
1.228035e+00 3.516103e-01 -2.792489e+00 143 141 144
4.012544e-01 5.547334e-01 -2.668085e+00 177 180 173
1.209534e+00 4.198104e-01 -2.823635e+00 121 130 95
1.516420e+00 4.749748e-01 -3.018016e+00 223 214 204
3.169482e-02 7.577097e-01 -2.839324e+00 50 45 53
2.502046e-01 7.185705e-01 -2.883040e+00 40 42 41
1.368042e+00 6.220158e-01 -2.937452e+00 56 55 74
1.442126e+00 6.444891e-01 -2.957601e+00 236 192 165
1.349303e+00 6.767082e-01 -2.939412e+00 198 194 186
5.669160e-01 8.644230e-01 -2.957299e+00 25 29 40
1.095436e+00 7.519083e-01 -2.958830e+00 122 123 85
7.167277e-01 9.085559e-01 -2.900580e+00 168 145 145
7.371893e-01 9.177383e-01 -2.902730e+00 200 166 157
7.464526e-01 1.043717e-02 -2.663248e+00 60 56 58
7.829466e-01 1.412987e-02 -2.743183e+00 30 34 41
1.221522e+00 2.231602e-02 -2.710355e+00 161 156 149
9.489622e-01 4.681846e-02 -2.799156e+00 174 162 120
9.279324e-01 4.379042e-02 -2.812539e+00 165 155 145
9.886348e-01 4.707708e-02 -2.802727e+00 45 41 35
9.597851e-01 7.471252e-02 -2.800875e+00 141 139 100
4.933626e-01 2.154318e-01 -2.688937e+00 140 141 143
1.004391e+00 1.229190e-01 -2.821618e+00 192 174 138
5.301306e-01 2.231423e-01 -2.691142e+00 44 47 56
5.014267e-01 2.555733e-01 -2.689013e+00 154 154 152
5.794501e-01 3.376422e-01 -2.715305e+00 130 130 131
3.541551e-01 4.566718e-01 -2.704024e+00 109 97 111
1.340566e+00 3.568412e-01 -2.865977e+00 52 58 73
4.245656e-01 5.450376e-01 -2.689411e+00 26 30 42
1.305161e+00 4.159891e-01 -2.875462e+00 184 178 178
2.245778e-01 6.899121e-01 -2.866351e+00 33 29 35
2.475214e-01 7.432027e-01 -2.805047e+00 149 141 138
1.968460e-01 8.015663e-01 -2.805244e+00 99 98 114
2.256123e-01 8.257070e-01 -2.820189e+00 30 36 51
1.197694e+00 6.345351e-01 -2.991534e+00 162 165 122
1.208893e+00 6.799442e-01 -3.009474e+00 154 145 115
1.394251e+00 6.690728e-01 -2.955706e+00 202 197 195
1.330243e+00 7.083034e-01 -3.027221e+00 223 148 135
6.887396e-01 9.046030e-01 -2.881659e+00 48 38 45
5.527584e-01 6.009974e-02 -2.639612e+00 216 210 211
9.750811e-01 -2.878079e-02 -2.749492e+00 33 38 32
5.624605e-01 6.588618e-02 -2.642387e+00 171 115 115
5.647992e-01 8.833858e-02 -2.644938e+00 72 67 70
9.539165e-01 7.330828e-02 -2.790561e+00 49 40 32
1.061898e+00 5.000952e-02 -2.816785e+00 42 41 36
1.034201e+00 6.200203e-02 -2.815151e+00 147 142 105
7.853315e-01 1.174171e-01 -2.804415e+00 31 35 44
8.032615e-01 1.389725e-01 -2.800702e+00 148 146 134
4.909612e-01 2.288639e-01 -2.682147e+00 161 163 161
4.909612e-01 2.288639e-01 -2.682147e+00 161 163 161
5.270300e-01 3.513344e-01 -2.712595e+00 132 132 134
5.309932e-01 3.579816e-01 -2.715481e+00 120 121 123
1.239391e+00 3.236450e-01 -2.787029e+00 140 135 141
1.505370e+00 4.482210e-01 -3.009717e+00 226 221 218
3.897932e-02 7.952212e-01 -2.809137e+00 116 114 127
2.637085e-01 7.667205e-01 -2.850339e+00 142 138 126
4.855829e-01 7.545218e-01 -2.824368e+00 69 67 69
5.266648e-01 7.856791e-01 -2.870373e+00 71 72 72
1.421395e+00 6.681180e-01 -2.960123e+00 201 197 195
5.156380e-01 7.878929e-01 -2.788162e+00 44 32 44
5.394467e-01 8.020971e-01 -2.881440e+00 68 72 76
5.430706e-01 8.149539e-01 -2.850146e+00 98 103 99
1.294294e+00 7.332261e-01 -3.029792e+00 185 178 169
1.294294e+00 7.332261e-01 -3.029792e+00 185 178 169
4.907073e-01 8.753051e-01 -2.775612e+00 52 49 58
4.976369e-01 8.844211e-01 -2.775968e+00 190 191 184
1.113620e+00 -1.778803e-02 -2.797461e+00 90 86 85
8.317421e-01 7.286081e-02 -2.786569e+00 36 45 54
1.024086e+00 5.982986e-02 -2.812589e+00 170 155 122
9.208702e-01 9.387969e-02 -2.812768e+00 132 122 113
5.013291e-01 2.258795e-01 -2.688100e+00 103 102 108
1.228896e+00 1.344561e-01 -2.758450e+00 162 171 187
5.262523e-01 2.729247e-01 -2.692336e+00 139 139 141
5.652418e-01 3.015483e-01 -2.699015e+00 192 193 195
1.371929e+00 2.086678e-01 -2.809591e+00 130 139 115
1.200786e+00 3.477872e-01 -2.781504e+00 175 174 172
4.391861e-01 4.785860e-01 -2.711350e+00 39 38 46
4.620400e-01 5.528826e-01 -2.733273e+00 52 33 50
5.203240e-01 6.738411e-01 -2.763400e+00 191 189 192
1.272912e+00 6.733158e-01 -3.017703e+00 179 163 149
8.882452e-01 3.397466e-03 -2.793781e+00 36 41 52
9.750528e-01 1.198250e-01 -2.810229e+00 152 145 103
9.805070e-01 1.709973e-01 -2.821838e+00 184 173 163
1.258335e+00 3.100465e-01 -2.793705e+00 150 144 146
4.359026e-01 5.698220e-01 -2.721423e+00 29 25 26
2.356134e-01 7.235094e-01 -2.829547e+00 119 118 122
8.190477e-01 1.552671e-02 -2.688445e+00 41 45 31
9.409421e-01 -1.828251e-02 -2.782356e+00 59 67 47
9.309935e-01 -1.444782e-03 -2.781400e+00 161 149 130
9.309935e-01 -1.444782e-03 -2.781400e+00 161 149 130
1.411519e+00 3.578470e-01 -2.893362e+00 209 199 200
4.381008e-01 5.937193e-01 -2.750774e+00 72 85 104
1.387177e+00 6.931363e-01 -2.949258e+00 160 156 160
9.006730e-01 -5.890381e-02 -2.723101e+00 76 64 54
9.929870e-01 5.509217e-03 -2.799641e+00 149 136 102
9.929870e-01 5.509217e-03 -2.799641e+00 149 136 102
7.903859e-01 8.189984e-01 -2.842122e+00 213 150 158
9.291022e-01 2.393174e-02 -2.805509e+00 32 35 40
1.036512e+00 1.934230e-01 -2.767929e+00 252 247 244
7.778657e-01 5.934663e-02 -2.754276e+00 151 150 146
1.168340e-01 3.050569e-01 -2.741406e+00 195 188 194
1.196920e-01 3.514164e-01 -2.751458e+00 236 233 225
7.884777e-01 9.567940e-01 -2.912837e+00 186 151 142
6.027717e-01 1.122564e+00 -3.002244e+00 94 104 114
5.933425e-01 9.457310e-01 -2.969710e+00 45 47 31
7.814244e-01 9.483621e-01 -2.908948e+00 153 140 140
6.300458e-02 1.222267e+00 -2.954356e+00 214 208 202
7.616361e-01 9.767267e-01 -2.915785e+00 215 184 176
7.816911e-01 9.765258e-01 -2.918636e+00 200 159 151
5.937994e-01 1.087322e+00 -2.986598e+00 90 106 132
1.098729e+00 1.034860e+00 -3.021738e+00 226 219 218
5.400633e-01 9.750427e-01 -2.972616e+00 231 243 221
6.466214e-01 9.681340e-01 -2.991239e+00 227 224 217
1.000995e+00 9.851863e-01 -3.007902e+00 138 124 111
9.199072e-01 9.974827e-01 -2.996444e+00 172 157 149
1.116391e+00 6.708440e-01 -2.967526e+00 71 70 57
5.595932e-01 9.598302e-01 -2.969800e+00 143 141 86
7.418831e-01 9.612584e-01 -2.906417e+00 161 142 134
7.584211e-01 9.839567e-01 -2.918047e+00 219 181 179
9.304287e-01 9.911917e-01 -2.996299e+00 175 162 154
1.015557e+00 9.974702e-01 -3.015682e+00 192 178 169
9.442813e-01 1.012947e+00 -3.006367e+00 60 49 84
1.003404e+00 1.009804e+00 -3.017554e+00 185 171 160
1.005837e+00 1.018651e+00 -3.020216e+00 186 172 161
9.258108e-01 8.820162e-01 -2.977276e+00 47 54 62
1.005752e+00 9.870789e-01 -3.009403e+00 193 179 166
1.005752e+00 9.870789e-01 -3.009403e+00 193 179 166
9.906974e-01 1.018544e+00 -3.017150e+00 179 169 157
1.093012e-01 4.734813e-01 -2.780853e+00 221 218 213
1.858617e-01 1.179486e+00 -2.975626e+00 96 88 101
4.617059e-01 1.107682e+00 -3.014474e+00 37 31 37
9.062976e-01 1.043242e+00 -2.957461e+00 22 29 32
1.098262e+00 7.030906e-01 -2.968020e+00 191 186 183
1.383294e+00 7.225498e-01 -2.947104e+00 173 168 170
1.125334e+00 9.557420e-01 -3.023742e+00 181 170 143
6.061720e-01 1.376617e+00 -3.094583e+00 149 147 146
3.320361e-01 1.438569e+00 -3.129551e+00 219 206 197
6.062011e-01 1.332965e+00 -3.091559e+00 173 157 168
6.022277e-01 1.332989e+00 -3.089858e+00 63 53 61
6.008075e-01 1.331332e+00 -3.091850e+00 182 176 173
3.164205e-01 1.380704e+00 -3.103972e+00 64 65 52
3.920450e-01 1.360516e+00 -3.103351e+00 192 182 180
1.319121e-01 1.420595e+00 -3.110248e+00 214 195 195
1.332073e-01 1.417436e+00 -3.109781e+00 81 61 63
5.365563e-01 1.293620e+00 -3.065281e+00 185 171 160
3.685869e-01 1.316307e+00 -3.087036e+00 188 180 179
3.646826e-01 1.313488e+00 -3.084598e+00 112 102 101
6.122160e-01 1.182422e+00 -2.958533e+00 170 169 166
5.539953e-01 1.182608e+00 -3.026582e+00 206 187 170
6.397951e-01 1.157352e+00 -3.004666e+00 205 188 167
-9.007669e-02 1.274468e+00 -2.917940e+00 109 107 123
3.619175e-01 1.148128e+00 -3.025842e+00 61 48 48
3.357262e-01 1.140028e+00 -3.023469e+00 59 42 36
1.226782e-01 1.157756e+00 -2.943019e+00 47 49 55
7.452850e-01 1.076154e+00 -2.986969e+00 95 96 91
6.281772e-01 1.081120e+00 -2.989447e+00 162 171 180
6.281772e-01 1.081120e+00 -2.989447e+00 162 171 180
4.205476e-01 1.100720e+00 -3.006781e+00 155 134 113
7.621145e-01 1.066318e+00 -2.986865e+00 97 93 92
4.441706e-01 1.073797e+00 -2.995797e+00 218 213 202
3.784644e-01 1.073434e+00 -2.997024e+00 119 103 111
-6.671113e-02 1.143091e+00 -2.999743e+00 114 112 115
7.493877e-02 1.116952e+00 -2.946709e+00 50 35 34
-7.035247e-02 1.116833e+00 -2.986405e+00 61 62 71
3.572895e-01 1.026280e+00 -2.982217e+00 152 148 149
3.731647e-01 1.023214e+00 -2.983925e+00 94 94 92
3.950155e-01 1.010592e+00 -2.978775e+00 81 81 81
7.799115e-01 9.759981e-01 -2.918566e+00 216 180 171
7.508105e-01 9.726870e-01 -2.909323e+00 219 191 177
8.170602e-01 9.572605e-01 -2.919833e+00 205 184 169
2.365874e-01 9.888866e-01 -2.963716e+00 82 79 65
7.571804e-01 9.566111e-01 -2.905414e+00 220 186 183
8.510184e-01 9.165362e-01 -2.861687e+00 218 147 156
7.670277e-01 9.067386e-01 -2.890267e+00 219 183 171
3.026515e-01 9.144069e-01 -2.936820e+00 114 109 116
2.944160e-01 8.940874e-01 -2.927049e+00 139 134 138
4.510386e-02 8.898703e-01 -2.948146e+00 62 62 50
-3.710319e-02 6.940449e-01 -2.811306e+00 46 42 44
1.093713e-01 5.829302e-01 -2.853613e+00 235 234 236
1.500693e-01 5.293750e-01 -2.820541e+00 95 92 87
3.642412e-01 6.067765e-01 -2.696847e+00 218 217 213
1.008001e-01 4.722440e-01 -2.791907e+00 213 210 209
1.686037e-02 4.605200e-01 -2.782572e+00 173 168 169
3.441726e-01 5.644798e-01 -2.685694e+00 242 224 236
8.998567e-02 3.776536e-01 -2.769432e+00 168 166 162
6.711928e-02 3.434113e-01 -2.760710e+00 193 188 185
2.233595e-01 3.270935e-01 -2.767890e+00 70 103 152
5.839703e-01 1.344579e+00 -3.095276e+00 153 152 147
6.009694e-01 1.336198e+00 -3.092255e+00 195 184 181
3.176009e-01 1.389923e+00 -3.107111e+00 196 182 173
3.180646e-01 1.389454e+00 -3.105234e+00 196 182 173
3.280299e-01 1.373088e+00 -3.101697e+00 51 52 32
3.234469e-01 1.345578e+00 -3.092194e+00 158 156 134
3.784660e-01 1.311800e+00 -3.086867e+00 150 143 137
