ply
format ascii 1.0
element face 0
property list uchar int vertex_indices
element vertex 934
property float x
property float y
property float z
property uchar diffuse_red
property uchar diffuse_green
property uchar diffuse_blue
end_header
1.475054e+00 -2.237071e-01 -2.861383e+00 199 179 170
5.422429e-02 5.749184e-02 -2.598108e+00 62 89 114
1.142129e+00 -9.274794e-02 -2.806828e+00 198 192 182
3.951329e-01 1.062186e-01 -2.762494e+00 57 60 53
1.097233e+00 -1.353967e-03 -2.800251e+00 76 76 86
4.064979e-01 1.188733e-01 -2.772124e+00 175 170 166
1.035053e+00 2.924207e-02 -2.807528e+00 186 171 138
3.573684e-01 1.511171e-01 -2.768434e+00 23 27 25
1.127751e+00 5.757741e-02 -2.822122e+00 89 87 92
5.511692e-01 2.090849e-01 -2.684368e+00 138 136 137
9.674121e-01 1.824044e-01 -2.825827e+00 178 171 165
8.329849e-01 2.103704e-01 -2.778905e+00 70 79 60
9.330446e-01 2.145818e-01 -2.814333e+00 129 116 64
9.189018e-01 2.667654e-01 -2.833593e+00 172 156 123
9.952989e-01 2.698243e-01 -2.847642e+00 171 162 153
7.530451e-01 3.078497e-01 -2.700198e+00 130 113 109
9.646345e-01 2.990549e-01 -2.847877e+00 174 161 129
9.297342e-01 3.156552e-01 -2.842311e+00 179 160 128
5.428468e-01 3.930386e-01 -2.724311e+00 105 105 107
4.166283e-01 4.504298e-01 -2.778533e+00 87 94 103
4.321727e-01 4.728901e-01 -2.744175e+00 124 128 132
8.136145e-01 3.742979e-01 -2.757359e+00 190 186 182
7.526733e-01 3.937532e-01 -2.761108e+00 41 53 67
4.886961e-01 4.935235e-01 -2.737977e+00 137 133 133
4.666761e-01 4.923107e-01 -2.699271e+00 77 71 86
6.946559e-01 4.361005e-01 -2.712585e+00 48 49 52
9.559336e-01 4.380943e-01 -2.828900e+00 31 31 34
4.965415e-01 -5.341733e-01 -2.696954e+00 29 29 32
5.011795e-01 -5.416307e-01 -2.718843e+00 82 78 76
6.771347e-01 -3.802270e-01 -2.609276e+00 208 206 201
1.232817e+00 -3.084895e-01 -2.733563e+00 179 175 174
2.505043e-01 -1.597360e-01 -2.650575e+00 65 68 87
1.024359e+00 -1.537095e-01 -2.769888e+00 181 164 149
3.703245e-01 -4.883734e-02 -2.727964e+00 22 23 25
1.559406e+00 -2.064288e-01 -2.880015e+00 196 159 136
1.573382e+00 -1.931999e-01 -2.880251e+00 40 37 41
3.202709e-01 6.275895e-02 -2.750062e+00 102 102 67
5.737364e-02 1.281155e-01 -2.654269e+00 19 24 30
1.077836e+00 1.109887e-02 -2.812292e+00 65 66 48
1.025896e+00 6.163132e-02 -2.810316e+00 167 152 121
1.143035e+00 7.317484e-02 -2.823246e+00 190 187 180
8.550678e-01 3.049053e-01 -2.817715e+00 24 26 25
9.398014e-01 2.955890e-01 -2.840010e+00 177 161 128
5.364667e-01 3.746663e-01 -2.719261e+00 105 106 108
6.768932e-01 3.611871e-01 -2.699398e+00 163 150 131
4.143794e-01 4.502370e-01 -2.724432e+00 112 119 127
7.044029e-01 3.852252e-01 -2.710947e+00 181 167 146
7.044029e-01 3.852252e-01 -2.710947e+00 181 167 146
7.874955e-01 3.918122e-01 -2.766410e+00 54 53 53
6.903972e-01 4.086191e-01 -2.711356e+00 50 51 54
6.905258e-01 4.211860e-01 -2.713361e+00 141 124 109
6.905258e-01 4.211860e-01 -2.713361e+00 141 124 109
1.071850e+00 -5.811848e-01 -2.676148e+00 162 169 176
4.562898e-01 -3.778552e-01 -2.710400e+00 38 44 57
3.458928e-01 -2.012411e-01 -2.739503e+00 34 34 36
1.033793e+00 -2.003809e-01 -2.746055e+00 189 175 161
9.491595e-01 2.215045e-01 -2.825783e+00 30 29 34
9.651723e-01 2.474080e-01 -2.830532e+00 37 37 34
9.853791e-01 2.552153e-01 -2.846049e+00 172 164 153
1.061679e+00 2.799143e-01 -2.776779e+00 254 252 253
3.441487e-01 4.938806e-01 -2.697338e+00 114 100 101
4.161251e-01 4.845061e-01 -2.715844e+00 203 184 163
4.161251e-01 4.845061e-01 -2.715844e+00 203 184 163
4.663105e-01 -5.275992e-01 -2.667129e+00 117 107 96
3.302917e-01 -2.503531e-01 -2.657248e+00 22 21 29
2.013905e-01 -1.975872e-01 -2.643412e+00 103 105 105
1.044056e+00 -1.900058e-01 -2.758023e+00 30 31 36
1.215054e+00 -1.502629e-01 -2.755185e+00 198 199 201
3.687662e-01 1.449361e-01 -2.768457e+00 23 27 30
1.624357e-01 3.021453e-01 -2.769444e+00 28 27 32
8.211617e-01 2.236576e-01 -2.768045e+00 75 86 52
5.622858e-01 3.080957e-01 -2.704767e+00 151 151 153
5.831174e-01 3.186690e-01 -2.705752e+00 151 151 151
8.486299e-01 2.878688e-01 -2.812068e+00 43 42 38
8.688992e-01 2.919953e-01 -2.824267e+00 152 135 107
9.891196e-01 2.823222e-01 -2.849514e+00 39 38 38
1.444710e-01 4.861121e-01 -2.805262e+00 18 21 25
8.705090e-01 3.181406e-01 -2.827417e+00 48 48 45
9.537250e-01 4.289963e-01 -2.861834e+00 25 25 25
1.410643e-01 4.245425e-02 -2.636676e+00 180 144 144
1.007385e+00 1.823560e-01 -2.829064e+00 41 40 38
4.000533e-01 4.736951e-01 -2.708109e+00 209 189 178
3.690780e-01 -1.193963e-01 -2.736064e+00 40 52 64
2.228793e-01 9.215696e-02 -2.724324e+00 51 56 35
-5.357235e-02 3.131760e-01 -2.783533e+00 29 32 37
-5.357235e-02 3.131760e-01 -2.783533e+00 29 32 37
1.004999e+00 1.392788e-01 -2.816607e+00 176 159 129
4.562975e-01 -5.069474e-01 -2.720286e+00 24 25 30
8.761361e-01 -3.900148e-01 -2.665393e+00 24 25 28
-8.110833e-02 3.854215e-01 -2.746435e+00 30 35 38
2.569613e-01 3.331478e-01 -2.761164e+00 108 150 182
9.134157e-01 3.742774e-01 -2.851764e+00 56 66 68
2.451716e-01 -1.989844e-01 -2.703496e+00 18 19 23
2.451716e-01 -1.989844e-01 -2.703496e+00 18 19 23
1.084279e+00 -8.687609e-02 -2.788870e+00 189 179 169
9.967638e-01 7.502855e-02 -2.803466e+00 175 158 130
3.277551e-01 2.457497e-01 -2.778962e+00 193 190 185
9.265236e-01 1.905056e-01 -2.813963e+00 39 41 38
7.698717e-01 -3.981753e-01 -2.638452e+00 37 38 43
3.308469e-01 -1.210725e-01 -2.683551e+00 31 32 37
1.224416e+00 -3.548308e-01 -2.755452e+00 215 208 201
3.121226e-02 -4.109806e-01 -2.608077e+00 30 33 42
5.095926e-01 1.862630e-01 -2.687996e+00 143 143 143
3.966274e-01 1.430481e-01 -2.773148e+00 142 133 131
5.116643e-01 2.377385e-01 -2.680289e+00 174 173 174
5.079286e-01 2.653542e-01 -2.679909e+00 148 144 143
3.563712e-01 2.240944e-01 -2.783777e+00 79 78 88
5.161573e-01 2.851002e-01 -2.686157e+00 172 173 168
6.957723e-01 3.173180e-01 -2.680062e+00 141 154 163
5.222497e-01 3.371536e-01 -2.705921e+00 46 40 47
3.183177e-01 3.123512e-01 -2.790240e+00 28 39 64
4.468028e-01 3.412265e-01 -2.797475e+00 209 209 207
5.433624e-01 3.907288e-01 -2.822467e+00 40 27 20
6.625447e-01 4.446749e-01 -2.701360e+00 184 182 183
5.739033e-01 4.735807e-01 -2.728739e+00 165 118 137
6.042214e-01 5.001888e-01 -2.741447e+00 81 45 34
6.043787e-01 5.000143e-01 -2.742436e+00 81 45 34
9.274864e-01 4.066956e-01 -2.873277e+00 184 195 175
7.080332e-01 5.016616e-01 -2.725256e+00 69 73 84
7.080332e-01 5.016616e-01 -2.725256e+00 69 73 84
6.069927e-01 5.108539e-01 -2.744225e+00 240 229 222
9.055670e-01 4.297945e-01 -2.879134e+00 177 172 164
3.159008e-01 5.880757e-01 -2.724490e+00 86 58 57
3.085855e-01 5.929167e-01 -2.725892e+00 83 61 72
4.667098e-01 6.103756e-01 -2.743050e+00 197 179 176
4.502193e-01 6.196708e-01 -2.743632e+00 212 196 196
5.668926e-01 6.085502e-01 -2.735364e+00 222 221 228
5.607802e-01 6.510290e-01 -2.746586e+00 190 189 188
6.001391e-01 6.468331e-01 -2.752447e+00 219 218 224
6.001391e-01 6.468331e-01 -2.752447e+00 219 218 224
5.371549e-01 6.661257e-01 -2.746962e+00 161 163 158
6.145163e-01 6.583865e-01 -2.758194e+00 121 118 118
5.227171e-01 6.792502e-01 -2.749779e+00 62 63 70
6.261144e-01 6.958019e-01 -2.773463e+00 186 186 186
7.031396e-01 6.896106e-01 -2.784127e+00 214 218 220
8.080343e-01 7.089112e-01 -2.904851e+00 195 209 139
6.708166e-01 7.304383e-01 -2.793706e+00 75 73 93
6.712131e-01 7.308990e-01 -2.791514e+00 75 73 93
6.413608e-01 7.388872e-01 -2.770742e+00 169 123 134
8.053490e-01 7.342123e-01 -2.927927e+00 39 35 26
8.579316e-01 7.314890e-01 -2.920212e+00 182 164 155
6.843983e-01 8.260890e-01 -2.935509e+00 226 229 191
4.891212e-01 2.279090e-01 -2.675475e+00 127 128 130
3.818477e-01 1.681951e-01 -2.775166e+00 43 46 51
5.007716e-01 2.592512e-01 -2.677798e+00 182 180 181
5.192361e-01 2.761636e-01 -2.682904e+00 192 188 187
3.013815e-01 2.291341e-01 -2.782623e+00 197 188 182
6.977716e-01 3.382246e-01 -2.693490e+00 178 166 150
7.190312e-01 3.391734e-01 -2.690208e+00 162 173 179
4.459650e-01 4.111567e-01 -2.769646e+00 130 117 114
6.206817e-01 4.537042e-01 -2.688486e+00 34 50 72
7.104591e-01 4.691963e-01 -2.718321e+00 113 109 104
3.456441e-01 5.573621e-01 -2.675225e+00 227 209 202
3.455813e-01 5.674936e-01 -2.679531e+00 229 202 201
9.130659e-01 4.120449e-01 -2.875046e+00 187 181 170
9.135004e-01 4.117891e-01 -2.875251e+00 187 181 170
5.685328e-01 6.183169e-01 -2.741342e+00 195 195 197
5.491223e-01 6.612769e-01 -2.747311e+00 159 157 158
6.200301e-01 6.641730e-01 -2.760800e+00 90 90 91
6.515280e-01 6.929469e-01 -2.776903e+00 195 193 196
5.837564e-01 7.162631e-01 -2.810717e+00 92 106 119
6.189485e-01 7.185891e-01 -2.769653e+00 205 154 157
6.337603e-01 7.303749e-01 -2.769506e+00 211 159 163
3.506971e-01 1.711680e-01 -2.772273e+00 41 42 49
3.972885e-01 1.702856e-01 -2.778953e+00 57 56 62
3.069814e-01 2.032506e-01 -2.778422e+00 187 182 175
5.633534e-01 2.959335e-01 -2.692305e+00 139 138 141
5.501801e-01 3.013096e-01 -2.699867e+00 148 144 151
4.776544e-01 3.209475e-01 -2.727092e+00 55 80 93
6.155154e-01 3.163676e-01 -2.709968e+00 102 102 102
5.361485e-01 3.495067e-01 -2.708710e+00 124 124 126
7.214254e-01 3.414529e-01 -2.690732e+00 172 172 178
6.681109e-01 3.681568e-01 -2.693716e+00 169 159 134
5.430349e-01 3.832281e-01 -2.716696e+00 139 139 141
7.894792e-01 3.689145e-01 -2.760304e+00 174 169 165
6.295326e-01 4.533087e-01 -2.696555e+00 71 82 98
9.096595e-01 4.131765e-01 -2.874487e+00 151 144 138
9.058022e-01 4.172448e-01 -2.876885e+00 152 147 141
9.134014e-01 4.173462e-01 -2.878777e+00 158 150 145
3.135415e-01 5.888391e-01 -2.724372e+00 218 193 185
6.654425e-01 5.996711e-01 -2.696724e+00 204 162 164
5.781135e-01 6.346832e-01 -2.745570e+00 172 173 175
5.656252e-01 6.459979e-01 -2.745972e+00 149 149 147
5.619274e-01 6.476483e-01 -2.751114e+00 194 192 193
5.611752e-01 6.471810e-01 -2.752408e+00 194 192 193
5.957569e-01 6.526384e-01 -2.752793e+00 196 197 199
7.414658e-01 6.307864e-01 -2.802336e+00 178 120 125
5.378997e-01 6.684198e-01 -2.747119e+00 172 171 168
5.708201e-01 6.630798e-01 -2.752012e+00 172 168 165
5.468550e-01 6.770077e-01 -2.756987e+00 142 140 141
6.332211e-01 6.972806e-01 -2.774120e+00 188 185 184
7.572774e-01 7.558177e-01 -2.934207e+00 196 189 164
4.580692e-01 8.099952e-01 -2.782873e+00 182 175 156
7.425725e-01 8.456747e-01 -2.871721e+00 141 120 116
2.924883e-01 2.537693e-01 -2.785202e+00 198 194 185
5.723774e-01 3.342350e-01 -2.705399e+00 117 117 119
7.066923e-01 3.575924e-01 -2.698264e+00 223 217 208
5.290637e-01 3.797715e-01 -2.712610e+00 140 140 142
5.273525e-01 3.839095e-01 -2.713591e+00 124 124 126
4.430162e-01 4.103458e-01 -2.768348e+00 83 68 67
6.436591e-01 4.405492e-01 -2.688290e+00 131 131 139
7.591468e-01 4.096925e-01 -2.760819e+00 25 32 50
5.839975e-01 4.873021e-01 -2.732683e+00 76 44 50
7.088187e-01 4.930556e-01 -2.724999e+00 186 186 183
9.232028e-01 4.073148e-01 -2.871226e+00 67 70 60
9.245520e-01 4.059823e-01 -2.875007e+00 67 70 60
3.170044e-01 6.990772e-01 -2.886450e+00 37 37 29
5.741259e-01 1.265579e-01 -2.745849e+00 161 165 175
6.155662e-01 1.560691e-01 -2.712082e+00 177 180 191
3.203710e-01 2.072177e-01 -2.779028e+00 39 37 40
5.396679e-01 2.820834e-01 -2.685450e+00 147 143 140
5.289333e-01 3.315397e-01 -2.703887e+00 133 130 134
4.871228e-01 3.258373e-01 -2.725335e+00 242 243 242
5.286660e-01 3.439781e-01 -2.707161e+00 116 116 115
6.197714e-01 4.506441e-01 -2.689108e+00 85 95 108
8.421942e-01 4.203051e-01 -2.866319e+00 41 45 56
4.559266e-01 5.559495e-01 -2.725722e+00 38 36 45
4.074061e-01 5.763039e-01 -2.689826e+00 176 150 128
5.864752e-01 6.102348e-01 -2.740666e+00 188 188 186
5.646191e-01 6.144049e-01 -2.741383e+00 78 83 98
5.631113e-01 6.623642e-01 -2.755062e+00 171 170 168
6.272065e-01 6.758509e-01 -2.765490e+00 132 132 134
6.272065e-01 6.758509e-01 -2.765490e+00 132 132 134
6.852668e-01 6.746184e-01 -2.777625e+00 196 194 198
6.813307e-01 7.216273e-01 -2.792051e+00 114 112 121
4.577555e-01 7.704349e-01 -2.767472e+00 44 44 47
4.759332e-01 8.110793e-01 -2.787852e+00 192 184 165
3.963032e-01 1.370243e-01 -2.774738e+00 148 140 132
5.199497e-01 2.674547e-01 -2.684629e+00 149 146 145
3.853145e-01 2.628759e-01 -2.782824e+00 92 93 85
6.234305e-01 2.816601e-01 -2.709616e+00 156 153 149
3.879638e-01 2.750248e-01 -2.784164e+00 193 188 186
6.980424e-01 3.148858e-01 -2.677543e+00 108 124 139
7.202459e-01 3.549739e-01 -2.690946e+00 213 216 217
7.180743e-01 3.800192e-01 -2.706156e+00 175 166 156
7.967117e-01 3.562442e-01 -2.756619e+00 52 44 47
6.428339e-01 4.368447e-01 -2.684993e+00 251 252 255
4.118805e-01 5.811503e-01 -2.685912e+00 183 156 139
3.071582e-01 5.948319e-01 -2.723844e+00 78 66 71
6.044449e-01 6.532840e-01 -2.753625e+00 199 198 200
5.391303e-01 6.855303e-01 -2.759316e+00 161 157 156
6.555492e-01 7.900252e-01 -2.894713e+00 136 155 152
7.256399e-01 8.499853e-01 -2.869385e+00 192 154 141
7.369911e-01 8.496465e-01 -2.871751e+00 188 158 147
7.083556e-01 8.542958e-01 -2.863884e+00 89 68 103
6.089056e-01 3.179639e-01 -2.708206e+00 100 98 99
6.956296e-01 3.877830e-01 -2.704938e+00 57 54 55
8.539293e-01 4.141210e-01 -2.866832e+00 43 47 62
6.950099e-01 7.036708e-01 -2.789932e+00 81 88 96
4.587978e-01 7.861416e-01 -2.773116e+00 78 83 86
4.586232e-01 7.858939e-01 -2.774338e+00 78 83 86
5.203828e-01 8.309540e-01 -2.795710e+00 174 164 144
7.920505e-01 5.950064e-01 -2.810791e+00 54 70 86
6.201443e-01 6.936170e-01 -2.770556e+00 162 161 157
6.761804e-01 7.277927e-01 -2.793683e+00 72 73 83
7.060947e-01 3.821201e-01 -2.703644e+00 182 166 143
4.547562e-01 4.841911e-01 -2.703857e+00 170 130 130
7.090817e-01 6.791457e-01 -2.785437e+00 104 111 117
4.730588e-01 3.937596e-01 -2.806158e+00 138 138 138
5.827075e-01 6.257215e-01 -2.741560e+00 134 128 128
6.638464e-01 4.281001e-01 -2.695785e+00 214 202 209
4.317991e-01 4.910038e-01 -2.684648e+00 201 175 157
4.137556e-01 5.583972e-01 -2.666348e+00 36 36 48
4.236714e-01 6.019106e-01 -2.711497e+00 42 44 56
-8.305766e-02 1.394010e-01 -2.586055e+00 136 135 140
1.038749e+00 2.008902e-01 -2.773674e+00 235 232 236
7.324444e-01 -3.025259e-02 -2.658090e+00 183 181 182
4.316219e-02 9.151349e-01 -2.953496e+00 19 30 24
4.329483e-02 9.150550e-01 -2.951529e+00 19 30 24
6.581323e-02 9.169013e-01 -2.956125e+00 53 49 44
5.232441e-02 9.170049e-01 -2.956196e+00 20 32 18
2.734997e-02 1.558630e-01 -2.684730e+00 27 28 36
1.968048e-02 1.640942e-01 -2.686326e+00 69 89 116
2.481063e-01 4.822672e-02 -2.717461e+00 27 32 36
1.235407e+00 2.136600e-03 -2.700094e+00 246 241 250
1.235407e+00 2.136600e-03 -2.700094e+00 246 241 250
3.981401e-01 -2.058539e-01 -2.742075e+00 170 180 181
4.481437e-01 -2.955832e-01 -2.726886e+00 9 20 40
4.884356e-01 -4.096512e-01 -2.722285e+00 71 76 80
4.756277e-01 -4.217295e-01 -2.719178e+00 52 57 60
4.756277e-01 -4.217295e-01 -2.719178e+00 52 57 60
5.009677e-01 -4.273807e-01 -2.725042e+00 54 61 67
4.143732e-01 -4.315035e-01 -2.704742e+00 53 61 72
9.249089e-01 -5.197110e-01 -2.763697e+00 34 43 22
6.471202e-01 -5.445498e-01 -2.737524e+00 149 153 156
7.877204e-01 -5.577938e-01 -2.737281e+00 145 140 110
4.583014e-01 -5.459077e-01 -2.618668e+00 139 141 140
5.411736e-01 -5.573203e-01 -2.630602e+00 135 136 139
4.354066e-01 -5.523717e-01 -2.615324e+00 171 171 170
4.666556e-01 -5.672339e-01 -2.619408e+00 140 140 140
5.049491e-01 -5.817987e-01 -2.624149e+00 176 176 176
5.032846e-01 -6.105276e-01 -2.623559e+00 188 190 187
4.667080e-01 -6.510217e-01 -2.617786e+00 169 172 163
4.663641e-01 -6.643269e-01 -2.617218e+00 127 127 129
5.836814e-01 -1.299752e-01 -2.748313e+00 50 51 53
7.022961e-01 -2.793470e-01 -2.735009e+00 166 155 137
4.788329e-01 -3.983152e-01 -2.723530e+00 47 56 64
4.827803e-01 -4.058629e-01 -2.722975e+00 137 142 148
4.850815e-01 -4.069887e-01 -2.725396e+00 52 57 61
3.922234e-01 -4.061585e-01 -2.702247e+00 40 47 60
4.201294e-01 -4.430315e-01 -2.706511e+00 53 60 75
4.518794e-01 -4.484487e-01 -2.710533e+00 37 51 62
6.197302e-01 -4.617489e-01 -2.735321e+00 118 118 118
4.800024e-01 -4.855619e-01 -2.742008e+00 135 127 104
4.787332e-01 -4.982656e-01 -2.743045e+00 159 156 147
5.099646e-01 -5.743534e-01 -2.625208e+00 171 171 171
5.099646e-01 -5.743534e-01 -2.625208e+00 171 171 171
3.556182e-01 -5.880070e-01 -2.640639e+00 145 144 144
8.504097e-01 -2.127455e-01 -2.747818e+00 170 176 151
5.034914e-01 -3.338433e-01 -2.733884e+00 166 170 170
5.034914e-01 -3.338433e-01 -2.733884e+00 166 170 170
3.870471e-01 -4.042998e-01 -2.701181e+00 21 27 40
6.928302e-01 -4.297078e-01 -2.584697e+00 245 248 247
3.618459e-01 -4.700496e-01 -2.700524e+00 177 173 172
2.842916e-01 -5.541997e-01 -2.720865e+00 110 105 78
7.154976e-01 -5.810976e-01 -2.751034e+00 181 173 157
5.201440e-01 -5.310190e-01 -2.628469e+00 155 156 161
7.318096e-01 -6.186707e-01 -2.749625e+00 158 150 137
4.060714e-01 -5.639977e-01 -2.610518e+00 153 143 131
6.866402e-01 -3.002100e-01 -2.730919e+00 172 170 149
4.644676e-01 -3.056010e-01 -2.710595e+00 112 147 173
6.187137e-01 -5.106872e-01 -2.733829e+00 72 81 88
8.575296e-01 -6.318029e-01 -2.747440e+00 147 153 109
3.521683e-01 -6.220627e-01 -2.641038e+00 141 140 145
3.851896e-01 -4.150817e-01 -2.703944e+00 43 57 73
8.549246e-01 -5.689485e-01 -2.738368e+00 38 42 38
6.659707e-01 -5.866243e-01 -2.738611e+00 145 153 146
8.512453e-01 -7.042241e-01 -2.730137e+00 49 49 53
4.717890e-01 -1.847631e-01 -2.750223e+00 173 165 154
4.826179e-01 -4.300930e-01 -2.720988e+00 104 106 110
5.111440e-01 -4.337628e-01 -2.725298e+00 180 184 193
3.980165e-01 -4.269657e-01 -2.702532e+00 49 64 77
4.888892e-01 -5.554741e-01 -2.621356e+00 36 36 42
2.600651e-01 -6.110317e-01 -2.694745e+00 71 78 89
5.686184e-01 -6.063551e-01 -2.634842e+00 31 32 38
4.373650e-01 -5.978807e-01 -2.607909e+00 128 121 114
5.200191e-01 -6.889617e-01 -2.620382e+00 38 43 45
6.422731e-01 -2.184828e-01 -2.742211e+00 50 47 46
5.331657e-01 -2.503294e-01 -2.752732e+00 61 55 47
4.014181e-01 -2.558869e-01 -2.633456e+00 128 132 139
4.833908e-01 -3.763396e-01 -2.725326e+00 195 193 188
3.686230e-01 -6.231493e-01 -2.643129e+00 137 139 138
7.413063e-01 -3.610330e-01 -2.613274e+00 40 47 57
6.869150e-01 -3.878519e-01 -2.599672e+00 203 204 205
3.503856e-01 -6.104593e-01 -2.637206e+00 144 138 139
3.998576e-01 -1.956565e-01 -2.740049e+00 155 155 155
4.355417e-01 -2.582993e-01 -2.724705e+00 104 145 175
-3.416650e-01 -3.897066e-01 -2.581613e+00 73 68 105
1.287644e+00 -7.000801e-01 -2.719409e+00 80 83 98
1.287644e+00 -7.000801e-01 -2.719409e+00 80 83 98
1.297268e+00 -7.046384e-01 -2.711668e+00 195 203 216
1.279300e+00 -7.173962e-01 -2.712036e+00 240 246 239
1.312527e+00 -7.002966e-01 -2.721003e+00 96 131 150
1.271699e+00 -7.115891e-01 -2.721566e+00 79 85 110
1.273104e+00 -7.087983e-01 -2.714542e+00 194 199 171
1.264019e+00 -7.205218e-01 -2.711304e+00 188 192 166
1.321745e+00 -6.902054e-01 -2.727945e+00 182 185 193
1.293244e+00 -7.183412e-01 -2.707767e+00 71 80 112
1.311899e+00 -6.925256e-01 -2.728259e+00 194 144 155
1.311899e+00 -6.925256e-01 -2.728259e+00 194 144 155
1.286981e+00 -6.842777e-01 -2.731673e+00 18 20 25
1.286981e+00 -6.842777e-01 -2.731673e+00 18 20 25
1.286161e+00 -7.068809e-01 -2.713645e+00 198 203 196
1.266303e+00 -7.201439e-01 -2.723988e+00 176 173 190
6.440591e-01 4.767622e-01 -2.710612e+00 203 202 197
9.650424e-01 3.056562e-01 -2.849272e+00 182 169 135
7.868057e-01 2.358505e-01 -2.821376e+00 183 181 168
9.614446e-01 2.099400e-01 -2.835293e+00 184 178 165
1.002658e+00 1.916318e-01 -2.840500e+00 130 121 116
5.636546e-01 2.154877e-01 -2.688549e+00 142 142 142
4.868777e-01 1.394129e-01 -2.753831e+00 63 57 60
6.697930e-01 1.593199e-01 -2.623578e+00 187 175 158
5.885132e-01 1.224127e-01 -2.644053e+00 233 231 226
5.784315e-01 1.203972e-01 -2.642667e+00 178 169 162
9.798422e-01 5.369184e-02 -2.808307e+00 65 63 38
7.520447e-01 7.126714e-02 -2.738114e+00 198 198 190
6.601674e-01 -7.800301e-03 -2.771937e+00 31 33 15
5.659880e-01 4.183241e-02 -2.627180e+00 86 89 103
1.165821e+00 -1.280883e-01 -2.788361e+00 29 32 38
6.339943e-01 4.660491e-01 -2.701250e+00 163 166 173
5.377667e-01 2.814993e-01 -2.690265e+00 146 145 143
9.221072e-01 2.576540e-01 -2.831236e+00 185 172 137
4.916040e-01 2.243845e-01 -2.679007e+00 147 148 152
8.618426e-01 1.041402e-01 -2.809450e+00 165 156 151
9.671495e-01 5.456377e-02 -2.801532e+00 115 116 97
9.217509e-01 4.300785e-02 -2.809385e+00 179 180 175
9.047894e-01 4.313640e-02 -2.808471e+00 80 80 79
9.047894e-01 4.313640e-02 -2.808471e+00 80 80 79
1.131677e+00 2.834713e-02 -2.754080e+00 199 203 200
4.279173e-01 1.510455e-02 -2.764103e+00 168 164 161
4.586411e-02 7.626010e-01 -2.861707e+00 54 45 50
6.080602e-01 3.064213e-01 -2.707903e+00 106 106 106
8.387683e-01 1.727028e-01 -2.796832e+00 32 39 41
5.478107e-01 1.960647e-01 -2.682463e+00 147 147 145
6.628413e-01 1.610781e-01 -2.622942e+00 186 175 157
6.094702e-01 1.185129e-01 -2.640824e+00 82 61 49
5.539118e-01 1.069663e-01 -2.636181e+00 188 180 169
1.067417e+00 7.960788e-03 -2.821090e+00 84 80 68
3.139804e-01 9.972452e-03 -2.744314e+00 22 23 17
6.409801e-01 -5.394087e-02 -2.715714e+00 161 146 143
6.527615e-01 -9.294699e-02 -2.695900e+00 155 121 119
6.619971e-01 -9.191985e-02 -2.694502e+00 152 119 114
9.090623e-01 4.483724e-01 -2.883206e+00 164 159 153
1.100542e+00 1.838011e-01 -2.725655e+00 178 137 124
1.095679e+00 1.791170e-01 -2.723628e+00 197 150 131
9.509970e-01 8.417380e-02 -2.805494e+00 151 131 122
-4.933992e-02 9.112583e-02 -2.579526e+00 155 151 153
1.088838e+00 1.088569e-02 -2.802714e+00 147 158 81
1.016879e+00 4.675366e-05 -2.800328e+00 149 142 118
1.000987e+00 -1.108776e-02 -2.804896e+00 173 166 158
5.518594e-01 6.558651e-02 -2.630027e+00 43 43 52
3.235610e-02 7.394471e-01 -2.821224e+00 56 45 55
1.061425e+00 5.220662e-02 -2.824345e+00 49 49 50
1.001930e+00 3.068417e-02 -2.801596e+00 154 152 117
1.040510e+00 1.640471e-02 -2.814668e+00 175 162 132
7.956597e-01 4.614064e-02 -2.743644e+00 148 150 147
-7.543381e-03 1.960714e-01 -2.671127e+00 109 113 121
9.669803e-01 1.317857e-01 -2.814039e+00 86 81 69
8.098479e-01 3.876171e-02 -2.746713e+00 37 46 55
2.217108e-01 -6.688047e-02 -2.731842e+00 34 37 42
4.906111e-01 2.452163e-01 -2.678833e+00 151 151 151
9.941923e-01 1.022711e-01 -2.814842e+00 184 168 139
6.055270e-01 7.663418e-02 -2.632592e+00 91 88 90
2.695648e-01 -1.204507e-01 -2.729021e+00 32 35 42
5.643386e-01 3.699727e-01 -2.720389e+00 106 105 103
1.788301e-01 -1.455935e-02 -2.742591e+00 15 16 21
8.031749e-01 2.414915e-02 -2.738904e+00 31 40 49
6.574096e-01 2.375218e-01 -2.705176e+00 161 156 150
2.816154e-01 3.174056e-02 -2.711554e+00 133 139 105
1.114662e+00 1.133072e-02 -2.793918e+00 184 185 187
9.794811e-01 3.779143e-02 -2.799175e+00 50 50 46
1.099502e-01 -5.618198e-03 -2.626170e+00 164 149 149
4.242658e-01 -6.656314e-02 -2.758201e+00 164 157 173
7.846788e-01 3.103056e-02 -2.738983e+00 147 137 150
-1.088707e-01 2.334721e-01 -2.755529e+00 28 31 47
7.883394e-01 9.871207e-02 -2.796733e+00 175 177 170
7.915208e-01 9.935480e-02 -2.797645e+00 48 50 44
1.207664e+00 1.459518e-01 -2.711277e+00 188 182 195
1.211226e+00 1.531852e-01 -2.712401e+00 212 198 216
1.224330e+00 1.670093e-01 -2.713608e+00 71 70 91
1.238533e+00 1.615562e-01 -2.763810e+00 110 108 130
9.304857e-01 2.658054e-01 -2.829691e+00 181 165 132
8.712528e-02 5.026543e-01 -2.792185e+00 162 162 160
1.857239e-01 5.520783e-01 -2.840409e+00 183 182 187
-1.747050e-03 7.254811e-01 -2.824583e+00 54 54 52
1.303371e+00 6.731220e-01 -2.999235e+00 231 158 146
7.677710e-01 8.002559e-01 -2.864112e+00 199 182 178
4.144034e-01 8.322641e-01 -2.787087e+00 205 200 199
2.576617e-01 9.805335e-01 -2.961935e+00 94 97 81
4.858658e-01 8.989644e-01 -2.782392e+00 183 182 179
7.615731e-02 1.119663e+00 -3.004250e+00 40 43 47
6.495926e-01 9.722736e-01 -2.992371e+00 171 166 163
6.409774e-01 9.960635e-01 -3.000672e+00 188 191 179
3.158213e-01 1.070251e+00 -3.000965e+00 40 47 50
7.806078e-01 -2.075140e-03 -2.666407e+00 52 28 30
2.882887e-01 7.663777e-02 -2.757033e+00 66 71 46
-3.273862e-01 1.554101e-01 -2.658607e+00 142 138 134
2.319194e-02 1.616339e-01 -2.674994e+00 79 80 85
5.905799e-01 1.221951e-01 -2.649234e+00 188 181 173
4.388858e-01 7.454353e-02 -2.769377e+00 47 52 58
8.816577e-01 3.070666e-02 -2.793457e+00 100 103 113
-1.116483e-01 2.195084e-01 -2.776001e+00 194 195 188
1.127472e+00 2.697552e-02 -2.772213e+00 80 78 89
2.615609e-01 2.180232e-01 -2.779430e+00 81 85 55
-4.593683e-02 2.770145e-01 -2.784501e+00 172 171 157
1.008183e+00 1.101609e-01 -2.809375e+00 165 147 118
9.758281e-02 3.151360e-01 -2.748475e+00 84 88 89
9.226618e-02 3.323316e-01 -2.756832e+00 132 132 132
1.044502e-01 3.380817e-01 -2.754237e+00 118 114 113
8.412484e-02 3.414218e-01 -2.755730e+00 181 179 172
1.165549e-01 3.439875e-01 -2.761178e+00 116 116 118
1.235051e-01 3.451046e-01 -2.763034e+00 19 20 31
9.845158e-01 1.817309e-01 -2.821530e+00 181 160 159
1.407628e-01 3.565286e-01 -2.762877e+00 135 135 137
1.159504e+00 2.326710e-01 -2.745938e+00 177 141 120
9.875616e-01 2.444734e-01 -2.837814e+00 138 129 120
2.986971e-02 4.333693e-01 -2.771984e+00 129 129 129
1.220595e-01 4.199809e-01 -2.774810e+00 146 145 142
7.992851e-03 4.433728e-01 -2.771380e+00 72 67 63
1.042737e+00 3.185367e-01 -2.842316e+00 248 251 253
1.048870e+00 3.422107e-01 -2.868329e+00 115 99 84
1.529638e-02 6.946635e-01 -2.843322e+00 42 40 44
5.207169e-02 9.021391e-01 -2.953489e+00 43 44 32
6.781356e-02 1.094683e+00 -3.020766e+00 43 46 51
2.478155e-01 1.020451e+00 -2.976010e+00 25 25 22
8.128638e-02 1.123183e+00 -3.011763e+00 98 101 106
8.128638e-02 1.123183e+00 -3.011763e+00 98 101 106
6.513315e-01 1.004742e+00 -2.983834e+00 209 213 232
7.557959e-01 9.663369e-01 -2.913374e+00 196 167 159
9.003917e-01 -1.533207e-01 -2.726307e+00 145 139 129
9.007490e-01 -1.428896e-01 -2.727169e+00 111 145 175
8.810746e-01 -1.323725e-01 -2.726699e+00 131 140 151
1.272381e-01 4.687291e-02 -2.682246e+00 76 78 86
5.639670e-01 3.908378e-02 -2.633818e+00 65 71 89
5.639908e-01 4.366907e-02 -2.632447e+00 191 190 194
9.311886e-01 -1.390157e-01 -2.733364e+00 42 35 52
8.672294e-02 8.589116e-02 -2.688371e+00 53 64 73
3.523301e-01 7.314923e-02 -2.761036e+00 45 50 27
3.417984e-01 8.620610e-02 -2.763637e+00 116 111 88
1.018007e+00 -3.368988e-02 -2.733239e+00 54 53 37
3.384149e-04 2.382824e-01 -2.776661e+00 19 22 31
-4.812216e-02 2.871776e-01 -2.776912e+00 28 31 36
2.011042e-01 2.611782e-01 -2.781721e+00 83 94 64
2.240488e-01 3.398927e-01 -2.764410e+00 136 160 193
1.300726e-01 3.562268e-01 -2.761829e+00 182 179 172
1.029148e+00 1.901545e-01 -2.811089e+00 239 246 248
1.032441e+00 1.954760e-01 -2.811995e+00 238 242 240
1.031960e+00 1.942926e-01 -2.817858e+00 111 105 127
1.509249e-01 3.924315e-01 -2.770304e+00 170 169 165
1.074207e+00 2.462898e-01 -2.757195e+00 96 78 120
1.067024e+00 2.440444e-01 -2.772755e+00 206 168 149
1.004709e-02 4.395151e-01 -2.770574e+00 74 67 58
1.004709e-02 4.395151e-01 -2.770574e+00 74 67 58
1.037474e-02 4.486375e-01 -2.773484e+00 115 110 116
1.067310e-01 4.416837e-01 -2.779311e+00 120 120 120
1.260518e-01 4.576271e-01 -2.783582e+00 175 171 168
1.717669e-02 4.849642e-01 -2.782115e+00 145 144 142
1.456563e-02 4.907924e-01 -2.782134e+00 149 148 144
1.390243e-01 4.738676e-01 -2.788414e+00 152 151 147
1.085466e+00 3.216172e-01 -2.811242e+00 106 93 126
1.075853e+00 3.468431e-01 -2.821947e+00 247 237 221
1.300116e-01 4.991031e-01 -2.794253e+00 145 146 141
1.060008e+00 3.572129e-01 -2.833361e+00 193 181 171
1.072384e+00 3.862627e-01 -2.883315e+00 182 179 147
1.292203e-01 9.462447e-01 -2.957920e+00 182 178 167
1.274827e-01 9.465578e-01 -2.961199e+00 182 178 167
9.423663e-02 1.010763e+00 -2.988175e+00 38 47 55
5.344529e-01 9.861368e-01 -2.971941e+00 231 240 224
2.845302e-01 1.050654e+00 -2.977139e+00 220 210 193
5.642011e-01 1.020181e+00 -2.990643e+00 31 41 28
8.034200e-01 -8.155181e-02 -2.659405e+00 96 106 118
-4.782744e-01 1.342613e-01 -2.691104e+00 173 170 179
-4.080878e-01 1.514551e-01 -2.685652e+00 148 147 145
7.975373e-01 2.348537e-02 -2.741771e+00 36 40 51
1.347400e-02 1.675768e-01 -2.740841e+00 17 26 33
9.120962e-01 -4.196729e-03 -2.795188e+00 42 45 56
8.716286e-01 3.707433e-02 -2.796568e+00 46 49 59
6.294867e-01 1.713335e-01 -2.660426e+00 96 103 113
6.294867e-01 1.713335e-01 -2.660426e+00 96 103 113
1.223886e+00 1.431100e-01 -2.760583e+00 198 188 200
1.031590e+00 1.931647e-01 -2.808115e+00 68 61 100
1.338458e-02 4.415164e-01 -2.771522e+00 179 170 171
1.248329e-01 4.676272e-01 -2.785507e+00 165 161 162
1.030691e+00 3.292480e-01 -2.862919e+00 136 122 87
7.123263e-02 5.039674e-01 -2.792444e+00 150 149 145
1.059842e+00 3.547230e-01 -2.830491e+00 67 53 76
-7.795006e-02 6.040212e-01 -2.866400e+00 158 151 139
1.307196e+00 5.807976e-01 -2.918770e+00 227 182 175
2.601574e-01 1.017928e+00 -2.968150e+00 78 81 65
4.178353e-01 -1.939500e-01 -2.739554e+00 45 47 62
6.835061e-01 -3.241814e-02 -2.710006e+00 196 200 201
2.700650e-01 5.548158e-02 -2.719835e+00 30 36 29
1.273409e-02 1.680456e-01 -2.735081e+00 52 57 71
1.288486e-02 1.682330e-01 -2.734685e+00 52 57 71
-4.085206e-02 2.361666e-01 -2.704026e+00 110 116 123
7.159288e-02 3.244920e-01 -2.750218e+00 57 51 47
-7.375273e-02 3.333570e-01 -2.780797e+00 58 63 66
1.027707e+00 1.911096e-01 -2.821576e+00 228 227 198
8.937994e-02 3.718074e-01 -2.762784e+00 165 163 163
1.007268e+00 1.992123e-01 -2.832539e+00 174 154 156
9.865249e-01 2.543846e-01 -2.840948e+00 187 177 168
1.085624e+00 3.876687e-01 -2.882650e+00 220 207 205
7.916661e-02 5.954356e-01 -2.852385e+00 180 174 162
1.433331e+00 6.626330e-01 -2.992265e+00 98 92 128
1.205460e-01 9.280456e-01 -2.955661e+00 161 152 152
1.331634e-01 9.424751e-01 -2.960799e+00 66 67 86
2.486898e-01 1.008932e+00 -2.969636e+00 68 70 57
3.243482e-01 6.971055e-03 -2.720108e+00 26 29 22
4.075508e-01 -2.995008e-02 -2.755926e+00 49 52 60
6.020074e-01 7.657472e-02 -2.640597e+00 76 59 67
-3.074074e-01 1.374108e-01 -2.696419e+00 57 46 44
-4.268681e-01 1.589804e-01 -2.689266e+00 159 158 154
-9.873717e-02 2.276739e-01 -2.778320e+00 190 181 172
9.564159e-02 2.814858e-01 -2.744572e+00 156 160 168
1.010225e+00 1.917709e-01 -2.831759e+00 49 38 42
9.326341e-02 3.994030e-01 -2.769154e+00 147 144 139
-1.982772e-01 4.611389e-01 -2.807144e+00 162 147 144
-1.511439e-01 5.057999e-01 -2.837456e+00 31 37 49
1.054230e+00 3.421450e-01 -2.866594e+00 191 181 173
1.053976e+00 3.424538e-01 -2.865120e+00 191 181 173
-1.782599e-01 5.568720e-01 -2.843982e+00 151 150 149
1.080209e+00 3.766966e-01 -2.870228e+00 125 114 113
2.918376e-01 3.327012e-02 -2.717756e+00 49 51 44
2.113132e-01 9.196204e-02 -2.712046e+00 24 28 38
-2.912923e-01 2.121655e-01 -2.732740e+00 77 79 84
-1.271045e-01 2.551843e-01 -2.767673e+00 130 174 193
9.921058e-01 2.132200e-01 -2.831470e+00 132 121 116
3.148140e-02 4.463465e-01 -2.771872e+00 149 145 142
-6.271793e-02 6.142943e-01 -2.866551e+00 66 73 84
3.305198e-01 9.485028e-03 -2.748813e+00 26 28 25
-4.689137e-01 1.471449e-01 -2.689247e+00 39 42 63
7.896742e-01 1.324684e-01 -2.802505e+00 31 32 36
8.718910e-01 1.604702e-01 -2.795583e+00 27 25 23
8.578104e-01 8.601471e-01 -2.872868e+00 161 114 126
3.058169e-01 1.567264e-02 -2.740161e+00 23 23 22
9.546125e-02 8.332051e-02 -2.755330e+00 14 15 19
-4.525901e-01 1.239728e-01 -2.687235e+00 143 142 142
-2.797423e-01 1.895983e-01 -2.716836e+00 25 27 26
-2.766902e-01 2.044327e-01 -2.732087e+00 24 25 29
-3.960048e-02 2.585595e-01 -2.762651e+00 19 21 20
1.408456e-01 2.428673e-01 -2.769677e+00 18 19 23
-7.711798e-02 6.206961e-01 -2.868612e+00 178 175 168
1.092737e+00 6.374119e-01 -2.952858e+00 132 119 113
4.642725e-01 -1.223905e-01 -2.727005e+00 201 183 171
9.888606e-01 -1.096952e-02 -2.780206e+00 32 33 36
1.148212e+00 4.818660e-02 -2.722255e+00 190 187 187
1.525382e-01 2.744536e-01 -2.782683e+00 24 25 30
4.482114e-01 -1.188473e-01 -2.735322e+00 23 23 21
9.382459e-01 6.629407e-02 -2.799335e+00 181 168 160
9.300075e-01 3.278591e-02 -2.795411e+00 28 29 34
8.667807e-01 1.872359e-01 -2.806863e+00 169 151 113
4.661010e-01 1.096735e+00 -3.009011e+00 80 68 61
4.204204e-01 1.072056e+00 -2.993901e+00 205 185 171
4.025086e-01 1.006021e+00 -2.977693e+00 153 153 148
-4.018818e-02 8.801785e-01 -2.920862e+00 170 174 178
5.263563e-01 9.902249e-01 -2.971960e+00 122 128 93
3.183488e-01 1.075760e+00 -2.996710e+00 51 56 62
3.280024e-01 1.068194e+00 -2.995591e+00 46 53 58
6.412009e-01 1.009112e+00 -2.989987e+00 51 37 106
9.476917e-01 1.006511e+00 -2.992120e+00 160 145 152
5.570840e-01 1.008308e+00 -2.984358e+00 39 46 30
1.105163e+00 1.022827e+00 -3.014328e+00 128 122 121
7.772539e-01 9.560081e-01 -2.909588e+00 200 167 163
6.474560e-01 9.879253e-01 -2.987957e+00 190 192 178
7.583376e-01 9.453598e-01 -2.906263e+00 140 122 125
7.674126e-01 9.422529e-01 -2.901450e+00 205 179 177
8.016490e-01 9.425556e-01 -2.910469e+00 210 174 165
6.331502e-01 9.778110e-01 -2.988595e+00 73 62 71
7.871739e-01 9.353939e-01 -2.905219e+00 197 163 157
5.382189e-01 9.757361e-01 -2.970950e+00 89 107 63
6.406945e-01 9.710946e-01 -2.983083e+00 182 177 169
7.459669e-01 9.286098e-01 -2.895433e+00 137 125 122
6.351730e-01 9.693387e-01 -2.982186e+00 191 190 182
7.028844e-01 9.208189e-01 -2.874519e+00 255 248 249
7.779334e-01 9.253575e-01 -2.902264e+00 198 169 163
6.917474e-01 9.103977e-01 -2.875101e+00 250 250 246
1.102806e+00 9.620286e-01 -3.011155e+00 171 157 140
6.859762e-01 8.869134e-01 -2.867979e+00 238 230 230
7.413186e-01 8.863980e-01 -2.883809e+00 136 120 126
6.790890e-01 8.754455e-01 -2.854496e+00 245 233 238
7.414306e-01 8.827943e-01 -2.882250e+00 210 181 176
6.232562e-01 9.177310e-01 -2.966949e+00 183 186 179
-5.919136e-02 9.906856e-01 -2.796319e+00 201 172 185
1.126883e+00 9.370443e-01 -3.012050e+00 150 137 118
7.178013e-01 8.678332e-01 -2.874649e+00 136 121 126
9.662151e-01 9.048278e-01 -2.965315e+00 210 213 204
9.724671e-01 9.039866e-01 -2.961566e+00 199 195 192
7.291939e-01 8.674210e-01 -2.876388e+00 143 131 128
9.742011e-01 9.021613e-01 -2.958416e+00 158 154 153
9.709986e-01 9.012361e-01 -2.963703e+00 197 198 193
-2.194149e-02 9.919381e-01 -2.897299e+00 53 55 54
-2.194149e-02 9.919381e-01 -2.897299e+00 53 55 54
9.660310e-01 8.890254e-01 -2.970907e+00 137 130 114
1.103027e+00 9.050142e-01 -2.993506e+00 175 165 130
9.141405e-01 8.395804e-01 -2.941610e+00 203 139 146
9.401769e-01 8.345502e-01 -2.949645e+00 24 37 20
1.392915e-02 9.128516e-01 -2.939813e+00 118 134 97
-6.881675e-02 9.161313e-01 -2.901185e+00 87 86 82
2.016285e-03 8.911844e-01 -2.932899e+00 100 116 85
5.748523e-02 7.980829e-01 -2.796176e+00 217 200 210
2.564468e-01 7.445185e-01 -2.790261e+00 138 128 136
-2.553103e-02 7.805917e-01 -2.800643e+00 77 70 93
1.092616e+00 7.227257e-01 -2.971725e+00 74 74 72
-9.286953e-02 7.883608e-01 -2.818011e+00 181 195 167
4.595090e-02 7.567314e-01 -2.816749e+00 171 153 146
1.032218e+00 7.070508e-01 -2.955814e+00 185 180 160
9.866793e-01 7.034292e-01 -2.957159e+00 195 184 179
9.302356e-01 6.976712e-01 -2.944234e+00 164 164 148
1.021530e+00 6.978617e-01 -2.951485e+00 49 48 34
1.331312e+00 7.006984e-01 -2.947813e+00 229 181 167
-2.812480e-02 7.213537e-01 -2.822086e+00 80 77 88
-2.864837e-02 7.214177e-01 -2.822725e+00 80 77 88
-3.689468e-02 7.151971e-01 -2.799842e+00 186 172 171
1.292368e+00 6.327544e-01 -2.925871e+00 246 212 197
1.094380e+00 5.766564e-01 -2.941120e+00 189 178 161
1.262887e+00 5.458158e-01 -2.967283e+00 77 68 70
1.269368e+00 5.416215e-01 -2.969356e+00 118 109 94
9.930775e-01 4.933272e-01 -2.806393e+00 130 132 132
1.404838e+00 4.294664e-01 -2.971812e+00 71 69 79
1.480763e+00 4.248031e-01 -2.980528e+00 180 184 173
1.142167e+00 4.239028e-01 -2.911186e+00 184 184 158
1.149685e+00 3.865534e-01 -2.906408e+00 54 62 44
1.173708e+00 3.847477e-01 -2.911590e+00 194 191 183
3.230133e-02 4.126906e-01 -2.766067e+00 159 156 157
7.760883e-02 4.062884e-01 -2.766424e+00 201 199 202
1.079140e+00 3.737452e-01 -2.881380e+00 196 188 183
1.198226e+00 3.830367e-01 -2.772671e+00 163 144 173
1.259196e+00 3.572439e-01 -2.782686e+00 184 163 186
1.049250e+00 3.385481e-01 -2.870260e+00 204 198 176
1.051251e+00 3.365993e-01 -2.870029e+00 103 98 75
1.205966e+00 3.466505e-01 -2.778048e+00 178 178 178
1.276962e-01 3.530730e-01 -2.759310e+00 129 131 128
9.903837e-01 3.059151e-01 -2.834390e+00 92 82 17
1.031235e+00 2.990753e-01 -2.840897e+00 121 122 138
1.013679e+00 2.930460e-01 -2.852223e+00 127 108 100
1.533069e-01 3.121113e-01 -2.757492e+00 171 178 181
8.699763e-02 3.010953e-01 -2.745573e+00 179 181 171
1.062411e+00 2.832207e-01 -2.804409e+00 238 234 242
1.994321e-01 2.762904e-01 -2.785018e+00 27 32 16
1.357182e+00 2.323818e-01 -2.849573e+00 27 35 38
3.000009e-01 2.236778e-01 -2.783427e+00 189 181 178
3.091562e-01 2.164832e-01 -2.784782e+00 206 199 187
9.454739e-01 1.979949e-01 -2.823462e+00 171 172 161
9.454739e-01 1.979949e-01 -2.823462e+00 171 172 161
9.234222e-01 2.017001e-01 -2.801208e+00 109 113 84
1.021397e+00 1.798468e-01 -2.816630e+00 223 224 222
8.485422e-01 1.862722e-01 -2.800848e+00 163 159 124
9.799365e-01 1.718332e-01 -2.821267e+00 201 193 179
3.708280e-01 1.828494e-01 -2.783678e+00 139 139 147
-1.076021e-01 2.146537e-01 -2.574685e+00 250 248 251
1.249644e+00 1.799923e-01 -2.733267e+00 243 247 247
-8.844680e-02 2.059823e-01 -2.588145e+00 183 180 197
1.740624e-02 1.785172e-01 -2.670584e+00 40 41 58
1.401452e-02 1.711583e-01 -2.676419e+00 31 33 56
1.245261e+00 1.667656e-01 -2.719285e+00 210 217 228
9.637594e-01 1.434439e-01 -2.804612e+00 59 47 36
1.214261e+00 1.385150e-01 -2.773607e+00 48 62 55
1.242233e+00 1.610220e-01 -2.715578e+00 59 69 101
-1.044832e-01 1.797951e-01 -2.582742e+00 183 171 183
1.241273e+00 1.597035e-01 -2.708987e+00 56 69 75
1.217872e+00 1.400282e-01 -2.751271e+00 95 101 130
9.566853e-01 1.257643e-01 -2.802661e+00 52 38 31
1.002429e+00 1.111974e-01 -2.814101e+00 94 78 59
1.222281e+00 1.398413e-01 -2.717896e+00 219 220 226
1.018602e+00 1.018964e-01 -2.815749e+00 38 48 22
1.173087e+00 9.855525e-02 -2.765197e+00 212 218 223
1.174309e+00 9.914720e-02 -2.761208e+00 225 232 239
1.166945e+00 9.066352e-02 -2.762618e+00 224 228 235
3.358456e-01 8.777859e-02 -2.766233e+00 145 140 109
-5.477029e-02 1.229898e-01 -2.574795e+00 216 211 214
3.615410e-01 7.526997e-02 -2.766090e+00 146 145 107
1.056207e+00 5.292748e-02 -2.810608e+00 148 156 145
1.043815e+00 5.526258e-02 -2.805529e+00 171 171 163
1.171978e+00 7.876651e-02 -2.730215e+00 69 53 81
1.144169e+00 4.822935e-02 -2.782839e+00 247 250 254
9.153665e-01 5.132499e-02 -2.803730e+00 75 78 85
1.149898e+00 5.458375e-02 -2.763623e+00 216 220 221
2.473512e-01 6.330466e-02 -2.713316e+00 21 24 15
9.912816e-01 2.674246e-02 -2.798033e+00 158 158 130
1.140381e+00 3.808710e-02 -2.753069e+00 68 71 85
1.158363e+00 5.706070e-02 -2.713133e+00 131 138 147
1.142638e+00 3.940032e-02 -2.744884e+00 51 61 72
1.023648e+00 5.758131e-03 -2.798475e+00 74 66 56
1.144548e+00 3.732976e-02 -2.716947e+00 213 217 226
9.971734e-01 4.184115e-04 -2.794652e+00 38 29 36
9.971734e-01 4.184115e-04 -2.794652e+00 38 29 36
5.363436e-01 1.082106e-01 -2.630770e+00 194 180 194
1.529176e-01 9.656108e-03 -2.692850e+00 35 36 40
9.556849e-01 -1.434538e-02 -2.784249e+00 150 156 138
6.953385e-01 -1.176808e-02 -2.774588e+00 67 59 83
9.186836e-01 -2.506565e-02 -2.773715e+00 18 15 10
5.658407e-01 6.179880e-02 -2.642042e+00 174 115 123
1.025985e+00 -1.940933e-02 -2.743594e+00 164 177 132
7.008567e-01 -1.326175e-02 -2.752061e+00 247 249 236
5.391859e-01 5.129935e-02 -2.630902e+00 86 82 86
6.319884e-01 -5.151306e-02 -2.762464e+00 211 197 183
5.616704e-01 3.710577e-02 -2.637105e+00 91 89 124
1.485245e-01 -1.646663e-02 -2.619297e+00 78 92 131
6.327887e-01 -5.526848e-02 -2.758737e+00 176 161 131
1.215180e+00 -4.823162e-02 -2.689812e+00 108 123 115
4.338873e-01 -1.129035e-01 -2.730070e+00 16 3 1
8.199417e-01 -6.677776e-02 -2.660931e+00 212 213 226
8.172894e-01 -6.990044e-02 -2.659924e+00 203 199 218
3.448664e-01 -1.770884e-01 -2.727950e+00 188 182 190
2.985469e-01 -1.843809e-01 -2.721696e+00 46 47 45
6.299470e-01 1.016397e+00 -2.990604e+00 23 19 66
8.828765e-01 1.000467e+00 -2.977666e+00 108 108 92
3.494407e-01 1.043510e+00 -2.975583e+00 155 152 145
6.372867e-01 1.007300e+00 -2.993923e+00 132 134 136
5.311929e-01 1.008516e+00 -2.972996e+00 31 33 30
4.128585e-01 1.020025e+00 -2.973738e+00 122 104 95
6.067520e-01 9.946804e-01 -2.979639e+00 82 94 58
5.384470e-01 9.960135e-01 -2.975038e+00 238 242 251
7.607829e-01 9.488476e-01 -2.904629e+00 201 171 162
5.636656e-01 9.890997e-01 -2.980188e+00 119 123 146
2.880462e-01 1.026265e+00 -2.971252e+00 32 31 26
6.070741e-01 9.779458e-01 -2.978199e+00 40 46 30
5.388117e-01 9.787887e-01 -2.967915e+00 236 244 245
5.375410e-01 9.787644e-01 -2.970454e+00 236 244 245
5.354822e-01 9.787676e-01 -2.967736e+00 38 47 33
2.687875e-01 1.021365e+00 -2.966855e+00 90 91 77
7.184383e-01 9.261756e-01 -2.882606e+00 137 122 115
5.437968e-01 9.731766e-01 -2.964849e+00 227 235 232
7.254561e-01 9.261856e-01 -2.891064e+00 211 174 172
5.655397e-01 9.661159e-01 -2.965234e+00 78 75 44
7.128145e-01 9.141555e-01 -2.885454e+00 218 176 188
7.120955e-01 9.099554e-01 -2.886305e+00 112 98 97
5.957512e-01 9.451647e-01 -2.965067e+00 50 45 22
7.099064e-01 9.008687e-01 -2.882415e+00 142 127 125
6.877330e-01 8.906377e-01 -2.862744e+00 233 226 230
9.483635e-01 9.233895e-01 -2.948858e+00 200 196 181
1.100182e+00 9.586176e-01 -3.010134e+00 117 106 86
1.099498e+00 9.351290e-01 -3.002520e+00 158 148 123
1.068557e+00 9.101873e-01 -2.986582e+00 100 89 74
1.068557e+00 9.101873e-01 -2.986582e+00 100 89 74
1.353374e+00 9.584742e-01 -3.103703e+00 206 199 181
2.955193e-01 9.077503e-01 -2.935031e+00 74 65 62
-2.361939e-01 9.841864e-01 -2.838097e+00 43 43 53
-2.361939e-01 9.841864e-01 -2.838097e+00 43 43 53
6.991454e-02 9.250361e-01 -2.953351e+00 115 118 99
4.310519e-02 9.257926e-01 -2.945524e+00 11 23 4
5.344675e-02 9.129502e-01 -2.948149e+00 37 39 20
5.831916e-02 9.111034e-01 -2.948004e+00 108 107 84
3.265915e-02 9.053699e-01 -2.942883e+00 109 113 98
1.254825e-02 8.997604e-01 -2.943407e+00 28 41 21
-2.939322e-02 8.408219e-01 -2.811917e+00 157 152 156
-3.121704e-02 8.340301e-01 -2.808309e+00 158 148 149
-2.756705e-01 8.965277e-01 -2.861030e+00 162 163 145
1.971603e-01 7.774746e-01 -2.790402e+00 50 48 66
2.324942e-01 7.660014e-01 -2.788035e+00 160 159 157
-6.111762e-02 8.227298e-01 -2.804530e+00 79 70 89
1.912366e-01 7.657375e-01 -2.784251e+00 43 45 58
1.840757e-01 7.660997e-01 -2.782284e+00 46 51 55
9.847388e-01 7.018531e-01 -2.955222e+00 194 185 180
1.016433e+00 7.016291e-01 -2.965256e+00 168 157 151
9.863006e-01 6.712114e-01 -2.947721e+00 99 92 81
1.705203e-01 6.771451e-01 -2.785528e+00 187 187 200
1.057943e+00 6.417645e-01 -2.947594e+00 149 145 142
-8.372224e-03 6.836741e-01 -2.799825e+00 203 191 203
6.017815e-03 6.801864e-01 -2.798384e+00 192 181 184
1.263475e+00 5.503149e-01 -2.963147e+00 200 163 154
9.881877e-01 4.963071e-01 -2.807082e+00 107 136 146
1.399230e+00 4.399837e-01 -2.972433e+00 183 175 169
6.383979e-02 4.604667e-01 -2.778139e+00 180 177 172
1.142945e+00 4.051779e-01 -2.909324e+00 144 143 114
1.142945e+00 4.051779e-01 -2.909324e+00 144 143 114
5.428597e-02 4.370960e-01 -2.771898e+00 169 166 160
7.005499e-02 4.176596e-01 -2.767279e+00 166 164 159
9.016105e-02 4.010660e-01 -2.766972e+00 178 177 173
1.671899e-01 3.939318e-01 -2.770567e+00 185 181 178
1.445624e+00 3.477692e-01 -2.886705e+00 191 188 183
1.043413e+00 3.224435e-01 -2.861258e+00 250 244 218
1.008320e+00 3.127289e-01 -2.855896e+00 170 166 136
1.055820e+00 3.104376e-01 -2.814534e+00 105 74 83
1.055820e+00 3.104376e-01 -2.814534e+00 105 74 83
1.169140e-01 3.182347e-01 -2.754833e+00 158 150 147
1.022455e+00 2.901068e-01 -2.847539e+00 113 89 94
1.140630e+00 2.807270e-01 -2.788993e+00 180 153 131
2.785633e-01 2.402157e-01 -2.785561e+00 115 114 106
2.822894e-01 2.280021e-01 -2.781741e+00 113 118 96
2.822894e-01 2.280021e-01 -2.781741e+00 113 118 96
2.515880e-01 2.261753e-01 -2.781708e+00 63 67 55
2.674612e-01 2.217641e-01 -2.782603e+00 80 84 64
3.050939e-01 2.185391e-01 -2.782644e+00 189 182 178
1.031993e+00 1.965041e-01 -2.829742e+00 220 222 173
1.256954e+00 2.039142e-01 -2.746785e+00 183 195 159
1.014044e+00 1.883203e-01 -2.822164e+00 52 60 24
1.249416e+00 1.799810e-01 -2.790193e+00 199 207 188
3.480698e-01 1.795080e-01 -2.780048e+00 53 59 69
1.233010e+00 1.619758e-01 -2.787603e+00 245 247 253
1.055565e-02 1.711164e-01 -2.699229e+00 88 86 107
1.223486e+00 1.495056e-01 -2.782258e+00 241 244 245
1.238493e+00 1.623171e-01 -2.747271e+00 61 80 109
1.246760e+00 1.686084e-01 -2.717211e+00 43 49 93
1.233136e+00 1.554756e-01 -2.744553e+00 55 68 94
1.219220e+00 1.396074e-01 -2.774638e+00 198 210 190
1.231175e+00 1.527985e-01 -2.743232e+00 33 48 68
1.217895e+00 1.371203e-01 -2.774359e+00 200 206 180
1.223943e+00 1.429278e-01 -2.735453e+00 206 220 194
1.003399e+00 1.212963e-01 -2.814293e+00 183 170 136
1.180293e+00 1.095580e-01 -2.773522e+00 232 238 240
1.181488e+00 1.099280e-01 -2.770150e+00 233 238 243
1.182156e+00 1.093659e-01 -2.762567e+00 44 51 68
7.635786e-02 1.165436e-01 -2.653540e+00 71 73 81
1.167752e+00 9.029298e-02 -2.755015e+00 50 59 68
3.306946e-01 8.723995e-02 -2.763688e+00 132 136 88
1.187189e+00 9.656290e-02 -2.734441e+00 79 85 132
3.615567e-01 8.263329e-02 -2.763970e+00 118 117 91
9.210619e-01 6.421122e-02 -2.809113e+00 140 136 124
1.179805e+00 8.636461e-02 -2.730530e+00 53 55 114
4.203078e-01 7.736692e-02 -2.763218e+00 41 37 50
9.657704e-01 6.161898e-02 -2.792292e+00 31 30 18
9.021856e-01 4.723827e-02 -2.799318e+00 79 83 88
9.021856e-01 4.723827e-02 -2.799318e+00 79 83 88
8.868170e-01 4.402431e-02 -2.797169e+00 169 173 178
5.917246e-01 1.236512e-01 -2.653842e+00 186 182 179
-1.210163e-02 8.877653e-02 -2.570261e+00 24 22 33
1.158871e+00 5.669754e-02 -2.721466e+00 222 225 231
5.894650e-01 1.185607e-01 -2.653704e+00 194 191 186
9.563355e-01 4.359436e-02 -2.771330e+00 27 32 26
5.854249e-01 1.186082e-01 -2.652389e+00 196 191 187
5.854249e-01 1.186082e-01 -2.652389e+00 196 191 187
2.859533e-01 4.590496e-02 -2.725931e+00 23 25 22
1.160388e+00 5.770530e-02 -2.708290e+00 93 103 122
1.365309e-01 6.254814e-02 -2.642945e+00 175 155 145
1.152614e+00 4.737723e-02 -2.713821e+00 220 232 234
1.124283e+00 1.835968e-02 -2.767354e+00 182 188 188
1.150810e+00 4.356648e-02 -2.717456e+00 98 105 126
4.233480e-01 2.373046e-02 -2.764475e+00 161 160 160
1.146106e+00 3.844780e-02 -2.713907e+00 101 109 126
9.301630e-01 5.608630e-03 -2.798204e+00 75 79 84
5.928083e-01 9.729866e-02 -2.650531e+00 211 207 198
5.928083e-01 9.729866e-02 -2.650531e+00 211 207 198
1.223764e+00 3.871895e-02 -2.685603e+00 242 246 255
6.041159e-01 9.020240e-02 -2.651754e+00 206 197 188
3.194279e-01 1.263492e-02 -2.712963e+00 110 119 88
1.206025e+00 2.021930e-03 -2.697046e+00 182 193 178
5.893961e-01 6.780552e-02 -2.646476e+00 192 188 181
5.702169e-02 3.578679e-03 -2.594250e+00 219 225 242
1.015863e+00 -2.885876e-02 -2.736860e+00 146 159 105
4.749158e-01 -5.137090e-02 -2.754151e+00 133 131 90
3.675084e-02 -1.039237e-02 -2.579899e+00 23 20 22
5.908330e-01 4.192651e-02 -2.640212e+00 53 38 46
6.330312e-01 -5.397379e-02 -2.762214e+00 48 37 34
9.058301e-01 -2.931615e-02 -2.721173e+00 132 131 120
6.196310e-01 -6.823610e-02 -2.756769e+00 49 41 34
6.196310e-01 -6.823610e-02 -2.756769e+00 49 41 34
6.202960e-01 -7.202168e-02 -2.753306e+00 171 155 133
2.048826e-02 -4.999224e-02 -2.574755e+00 53 57 59
5.969841e-01 -8.979180e-02 -2.757963e+00 67 57 55
4.414186e-01 -1.059870e-01 -2.742731e+00 140 138 138
6.644580e-01 -6.436968e-02 -2.700588e+00 186 158 136
4.016961e-01 -1.651394e-01 -2.734733e+00 166 166 165
2.676143e-01 -1.196228e-01 -2.649037e+00 191 188 188
4.045344e-01 -1.710211e-01 -2.730288e+00 189 191 186
9.335333e-01 1.016704e+00 -2.990800e+00 35 39 44
5.933170e-01 1.015464e+00 -2.986661e+00 134 143 78
9.751716e-01 1.008290e+00 -2.999223e+00 142 128 109
5.373429e-01 1.005911e+00 -2.975158e+00 31 35 34
6.574260e-01 9.958541e-01 -2.984787e+00 240 240 251
1.102717e+00 1.018506e+00 -3.012017e+00 244 238 212
7.479342e-01 9.480254e-01 -2.905117e+00 196 167 155
7.536078e-01 9.486081e-01 -2.905218e+00 196 159 160
5.349840e-01 9.900650e-01 -2.973599e+00 243 243 246
1.011881e+00 9.910771e-01 -3.000474e+00 179 165 155
7.452568e-01 9.369107e-01 -2.902927e+00 121 104 113
5.304224e-01 9.780803e-01 -2.968036e+00 112 113 72
6.333784e-01 9.721019e-01 -2.980913e+00 80 70 72
7.805623e-01 9.306917e-01 -2.900943e+00 196 169 162
3.049538e-01 1.008666e+00 -2.964212e+00 50 49 27
1.043906e+00 9.808870e-01 -3.003604e+00 203 183 158
2.468307e-01 1.008030e+00 -2.964702e+00 26 27 20
6.165309e-01 9.508245e-01 -2.966005e+00 65 55 60
6.509937e-01 9.329443e-01 -2.975575e+00 93 103 99
