ply
format ascii 1.0
element face 0
property list uchar int vertex_indices
element vertex 927
property float x
property float y
property float z
property uchar diffuse_red
property uchar diffuse_green
property uchar diffuse_blue
end_header
7.378367e-03 9.734435e-01 -2.962625e+00 16 17 19
8.728681e-02 9.680578e-01 -2.978667e+00 48 58 67
2.589444e-01 9.292303e-01 -2.901249e+00 34 38 29
3.107863e-01 9.361834e-01 -2.939326e+00 42 44 31
-7.823226e-03 9.415157e-01 -2.971597e+00 15 17 16
3.987986e-01 9.033662e-01 -2.851223e+00 204 195 186
-2.361708e-01 9.399318e-01 -2.949491e+00 45 48 58
-2.290961e-01 9.355173e-01 -2.929667e+00 45 48 58
-8.973817e-03 9.211615e-01 -2.962972e+00 18 22 21
-2.099720e-01 9.171081e-01 -2.920794e+00 11 13 25
-1.761494e-01 8.960487e-01 -2.951101e+00 56 56 67
-2.435333e-02 8.494357e-01 -2.815193e+00 73 70 76
6.830453e-01 8.208021e-01 -2.915248e+00 241 236 231
7.046544e-01 8.111523e-01 -2.903254e+00 132 126 126
-1.855170e-01 7.692213e-01 -2.883262e+00 39 46 56
-3.025079e-01 7.095998e-01 -2.907458e+00 22 26 37
-4.794347e-01 7.209213e-01 -2.706445e+00 60 55 71
-3.027531e-01 6.923991e-01 -2.903742e+00 29 36 44
-5.123595e-01 7.010315e-01 -2.693569e+00 204 214 197
-3.898169e-01 5.242846e-01 -2.824537e+00 13 17 20
-1.513718e-01 5.033898e-01 -2.841244e+00 31 37 49
-1.513718e-01 5.033898e-01 -2.841244e+00 31 37 49
-5.771963e-01 4.839358e-01 -2.723747e+00 55 48 51
-8.273645e-01 3.906728e-01 -2.833145e+00 30 28 41
-2.531902e-01 3.129277e-01 -2.820878e+00 58 56 61
-3.225850e-01 2.837531e-01 -2.826024e+00 47 44 44
-3.143588e-01 2.341765e-01 -2.798731e+00 49 46 52
-3.444638e-01 1.961864e-01 -2.798580e+00 36 39 44
-1.195365e-01 2.121791e-01 -2.780475e+00 47 48 52
3.357393e-01 2.188935e-01 -2.775208e+00 67 70 77
-3.933385e-01 1.780952e-01 -2.757367e+00 33 51 73
4.483038e-01 2.010893e-01 -2.770395e+00 193 192 187
8.537680e-01 1.505364e-01 -2.768371e+00 73 68 37
3.791084e-01 1.454090e-01 -2.765186e+00 44 45 45
-3.159817e-01 8.051317e-02 -2.752168e+00 19 18 23
-3.523247e-01 1.191010e-01 -2.671575e+00 193 189 185
4.043453e-01 9.864441e-02 -2.748972e+00 66 66 50
5.930484e-01 1.445180e-01 -2.658823e+00 159 172 181
-3.512334e-01 1.100720e-01 -2.669698e+00 118 116 122
-3.108296e-01 5.488067e-02 -2.748743e+00 13 16 24
3.335062e-02 1.615298e-01 -2.629869e+00 108 118 121
3.964248e-02 1.654760e-01 -2.595401e+00 124 129 133
-1.461467e-02 1.471838e-01 -2.596385e+00 136 136 138
7.253435e-02 1.233406e-01 -2.621884e+00 109 114 120
3.792854e-01 1.112432e-02 -2.750068e+00 125 132 90
-1.793432e-02 1.212710e-01 -2.583884e+00 128 127 133
5.340862e-01 -4.172034e-03 -2.725466e+00 124 159 187
3.849604e-01 -2.721733e-02 -2.728515e+00 66 76 63
4.608361e-01 -7.916279e-02 -2.734714e+00 145 140 108
6.816088e-04 3.189592e-02 -2.571499e+00 23 30 37
2.331415e-01 9.725623e-01 -2.873841e+00 141 151 80
5.862901e-01 1.028390e+00 -2.970612e+00 138 143 120
1.365590e-01 9.755468e-01 -2.954512e+00 225 206 195
3.374448e-01 9.693658e-01 -2.959292e+00 131 142 98
-3.051553e-01 9.703481e-01 -2.841243e+00 91 86 91
3.422541e-01 9.602649e-01 -2.959808e+00 146 128 102
3.420339e-01 9.461397e-01 -2.955932e+00 131 114 103
3.385634e-01 9.320684e-01 -2.951872e+00 63 59 61
3.392421e-01 9.216106e-01 -2.948663e+00 134 121 112
-2.019832e-01 9.221837e-01 -2.932840e+00 22 39 69
6.792032e-01 8.768964e-01 -2.856941e+00 202 143 147
-1.194903e-02 7.900105e-01 -2.796295e+00 67 75 84
7.303228e-01 8.178510e-01 -2.862170e+00 208 148 155
-3.581908e-01 7.832398e-01 -2.877031e+00 18 21 28
-5.163772e-01 7.624384e-01 -2.714638e+00 112 112 107
-5.589007e-01 7.203391e-01 -2.702839e+00 141 127 127
-3.178731e-01 6.780458e-01 -2.896236e+00 20 21 26
-3.168229e-01 6.780892e-01 -2.894126e+00 20 21 26
-2.788139e-01 6.308244e-01 -2.880595e+00 22 23 27
8.491227e-01 5.812103e-01 -2.763423e+00 140 144 150
5.646372e-01 4.240040e-01 -2.802557e+00 205 188 175
5.646372e-01 4.240040e-01 -2.802557e+00 205 188 175
5.216980e-01 3.851356e-01 -2.818907e+00 118 109 78
-4.381426e-01 3.487024e-01 -2.839580e+00 43 39 40
5.612651e-01 3.448347e-01 -2.710447e+00 125 126 130
5.268157e-01 3.409586e-01 -2.705835e+00 134 133 135
5.082843e-01 3.041198e-01 -2.725007e+00 60 49 57
-2.913163e-01 2.487041e-01 -2.813848e+00 148 138 125
-1.230312e-01 1.986593e-01 -2.781333e+00 184 180 171
-4.059358e-01 1.931778e-01 -2.728767e+00 53 45 51
-2.278496e-01 1.688734e-01 -2.760401e+00 57 56 62
-1.119796e-02 1.878993e-01 -2.696797e+00 16 19 28
-4.450877e-01 1.232017e-01 -2.715881e+00 163 163 161
5.979105e-01 1.466410e-01 -2.690298e+00 129 138 148
2.192244e-01 1.381028e-01 -2.721169e+00 25 29 28
-8.906505e-02 1.990220e-01 -2.597474e+00 156 154 157
8.015527e-02 1.071264e-01 -2.749652e+00 15 16 21
9.219235e-01 1.437655e-02 -2.759478e+00 167 155 150
3.888264e-02 1.622117e-01 -2.612582e+00 23 26 33
1.169282e-01 6.960131e-02 -2.753943e+00 27 31 40
9.096388e-01 -2.076170e-02 -2.773676e+00 29 33 44
3.305563e-01 1.381811e-02 -2.740372e+00 26 31 27
7.825410e-01 1.598464e-02 -2.657559e+00 162 124 116
7.825410e-01 1.598464e-02 -2.657559e+00 162 124 116
6.911434e-01 -1.939149e-02 -2.676422e+00 190 164 154
7.122816e-01 -2.071035e-02 -2.643296e+00 186 149 150
3.180166e-02 6.873479e-02 -2.579087e+00 48 55 65
4.669113e-01 -1.025947e-01 -2.726545e+00 179 140 132
-4.217201e-01 1.027007e+00 -2.848781e+00 48 56 66
2.113523e-01 9.622493e-01 -2.900926e+00 35 38 28
1.397446e-01 9.642168e-01 -2.967845e+00 53 50 63
1.064191e-01 9.348398e-01 -2.943684e+00 206 176 158
-2.577461e-01 9.487719e-01 -2.873912e+00 82 79 88
9.280952e-02 9.289999e-01 -2.959652e+00 34 35 36
7.310109e-02 9.127999e-01 -2.966857e+00 69 64 58
3.845070e-01 7.742436e-01 -2.881774e+00 251 247 218
6.973580e-01 8.036189e-01 -2.911756e+00 244 239 229
-3.597830e-01 7.319946e-01 -2.852409e+00 18 20 26
-3.187037e-01 7.180678e-01 -2.897285e+00 29 33 44
-5.033795e-01 7.023938e-01 -2.705414e+00 38 37 52
5.688187e-01 4.358068e-01 -2.802914e+00 43 37 46
-5.167971e-01 3.461140e-01 -2.835772e+00 14 15 19
-2.152430e-01 3.006926e-01 -2.819425e+00 43 24 35
-2.152430e-01 3.006926e-01 -2.819425e+00 43 24 35
-2.555063e-01 2.648866e-01 -2.806037e+00 56 28 45
-3.037534e-01 2.267908e-01 -2.808554e+00 175 157 128
1.027401e+00 2.057905e-01 -2.748661e+00 215 220 227
-3.924152e-01 1.773358e-01 -2.771970e+00 76 79 90
-5.918142e-01 1.323201e-01 -2.785719e+00 39 40 44
-3.811647e-01 1.490230e-01 -2.718083e+00 194 189 185
4.839513e-01 8.230832e-02 -2.760774e+00 169 161 150
-2.893146e-01 1.453684e-02 -2.756713e+00 197 193 188
4.008978e-01 7.905593e-03 -2.733408e+00 24 33 29
-6.836900e-02 9.890661e-02 -2.581769e+00 31 38 49
-1.141607e-02 1.005790e-01 -2.585380e+00 129 130 134
3.080957e-01 -4.300183e-03 -2.718901e+00 116 122 91
-7.045606e-02 8.657710e-02 -2.577288e+00 176 174 166
4.853099e-01 -4.821170e-02 -2.730884e+00 127 130 91
-3.248712e-01 -1.430732e-01 -2.697848e+00 59 63 75
-4.779148e-02 4.531380e-02 -2.533504e+00 24 27 34
-3.052438e-01 -1.749800e-01 -2.692401e+00 55 57 72
1.250120e-01 -1.154257e-01 -2.607661e+00 179 177 178
-5.100716e-02 9.445577e-01 -2.885353e+00 96 98 103
9.170364e-02 9.307201e-01 -2.961089e+00 42 43 44
7.566340e-01 8.305712e-01 -2.849072e+00 252 251 249
-3.998000e-01 8.112131e-01 -2.932352e+00 49 60 78
-3.133017e-01 7.071564e-01 -2.907142e+00 28 36 44
-3.133017e-01 7.071564e-01 -2.907142e+00 28 36 44
-2.465632e-01 6.528669e-01 -2.854522e+00 26 30 41
-2.478747e-01 3.406126e-01 -2.827305e+00 146 138 136
3.875418e-01 1.497158e-01 -2.767870e+00 177 174 164
6.019864e-01 1.420226e-01 -2.678084e+00 158 168 178
5.411148e-01 1.086765e-01 -2.719136e+00 161 168 175
9.088284e-01 -2.246688e-04 -2.753533e+00 114 112 100
9.088284e-01 -2.246688e-04 -2.753533e+00 114 112 100
-5.754560e-02 1.512322e-01 -2.592815e+00 147 147 148
-7.122754e-02 1.174275e-01 -2.591761e+00 146 144 146
5.116188e-01 7.671261e-03 -2.733248e+00 138 131 80
-3.471469e-01 -7.219789e-02 -2.720144e+00 50 53 63
7.282065e-01 -3.592063e-02 -2.637989e+00 46 55 72
4.644244e-01 -1.132181e-01 -2.711557e+00 188 174 161
5.888723e-01 -1.680271e-01 -2.717497e+00 146 136 126
6.808952e-02 1.011042e+00 -2.997760e+00 42 54 66
1.556746e-01 9.818528e-01 -2.974506e+00 50 49 54
-2.723228e-01 6.401338e-01 -2.887847e+00 29 38 47
6.188637e-01 5.015062e-01 -2.751098e+00 195 187 179
6.188637e-01 5.015062e-01 -2.751098e+00 195 187 179
-4.465318e-01 2.089726e-01 -2.810587e+00 122 119 114
-1.475851e-01 2.022777e-01 -2.787179e+00 21 24 28
-6.000875e-01 1.465226e-01 -2.767136e+00 169 177 184
-3.778875e-01 4.112762e-02 -2.662742e+00 164 164 166
8.150322e-03 1.237859e-01 -2.589383e+00 127 127 129
2.887408e-01 8.725302e-03 -2.700872e+00 31 39 48
-3.137120e-02 6.011469e-02 -2.543469e+00 154 155 150
4.463759e-01 -1.077116e-01 -2.721575e+00 32 32 31
1.253592e-01 9.470419e-01 -2.948647e+00 39 39 47
-9.623795e-01 4.666420e-01 -2.881024e+00 23 25 30
-3.368367e-01 2.556145e-01 -2.797693e+00 39 35 35
-4.975813e-01 2.129393e-01 -2.807997e+00 24 26 25
-3.428140e-01 7.296848e-02 -2.678270e+00 130 130 135
-2.828343e-02 1.198684e-01 -2.582116e+00 141 142 144
6.910785e-02 6.692759e-02 -2.595499e+00 34 39 46
-3.804901e-01 7.001987e-01 -2.710223e+00 18 21 33
2.377286e-01 8.111092e-02 -2.712626e+00 67 75 51
-2.283851e-01 6.492979e-01 -2.804782e+00 25 32 42
4.540658e-01 -2.027267e-01 -2.739629e+00 134 133 141
3.892658e-01 -1.624970e-01 -2.745923e+00 147 147 147
4.366983e-01 -8.878641e-02 -2.750250e+00 65 63 64
4.404436e-01 -8.760146e-02 -2.750708e+00 76 72 69
2.691201e-01 6.611552e-02 -2.744564e+00 36 33 26
7.385646e-01 2.750407e-02 -2.729132e+00 152 157 153
4.813503e-01 9.246870e-02 -2.768854e+00 164 163 166
4.813311e-01 9.252715e-02 -2.768427e+00 164 163 166
4.725943e-01 1.027616e-01 -2.776452e+00 168 160 160
5.479236e-01 1.088700e-01 -2.739203e+00 192 193 196
5.458578e-01 1.124452e-01 -2.740240e+00 28 26 20
3.941462e-01 1.288270e-01 -2.769027e+00 140 140 130
4.130874e-01 1.356156e-01 -2.763898e+00 184 174 165
4.085453e-01 1.367749e-01 -2.763830e+00 119 111 99
3.781807e-01 1.525979e-01 -2.767853e+00 157 157 155
3.809235e-01 1.563803e-01 -2.764289e+00 167 168 163
3.850106e-01 1.565045e-01 -2.772339e+00 186 185 185
4.378826e-01 1.685017e-01 -2.773515e+00 213 209 206
5.975212e-01 1.513086e-01 -2.779633e+00 159 157 141
4.049970e-01 2.028791e-01 -2.782405e+00 67 75 87
5.567117e-01 2.175661e-01 -2.680110e+00 174 170 169
3.566374e-01 2.260420e-01 -2.782073e+00 100 106 112
3.887439e-01 2.298867e-01 -2.784746e+00 63 73 77
2.411462e-01 2.584826e-01 -2.775228e+00 176 169 150
1.054254e-01 2.863571e-01 -2.742033e+00 167 167 172
5.483477e-01 2.393937e-01 -2.679115e+00 179 175 172
3.751448e-01 2.438333e-01 -2.786421e+00 179 183 187
4.191244e-01 2.403105e-01 -2.775911e+00 178 179 183
2.289023e-01 2.705712e-01 -2.779204e+00 171 166 149
4.316120e-01 2.426722e-01 -2.777743e+00 194 188 189
4.183869e-01 2.451912e-01 -2.776642e+00 189 185 182
1.865448e-01 2.795665e-01 -2.779800e+00 114 110 93
8.535923e-02 3.025984e-01 -2.742977e+00 175 177 172
6.334533e-01 2.316211e-01 -2.691809e+00 17 10 33
5.052674e-01 2.587827e-01 -2.670122e+00 181 180 178
4.063381e-01 2.559003e-01 -2.777757e+00 195 193 194
4.930521e-01 2.722875e-01 -2.670504e+00 160 160 162
3.898969e-01 2.705551e-01 -2.773390e+00 95 91 90
5.280712e-01 2.682890e-01 -2.676676e+00 187 187 185
7.410096e-02 3.261532e-01 -2.746061e+00 43 39 37
1.022865e-01 3.226174e-01 -2.748940e+00 184 187 194
5.944113e-01 2.588815e-01 -2.693704e+00 175 171 169
2.218119e-01 3.000004e-01 -2.785667e+00 121 124 104
2.205473e-01 3.022062e-01 -2.783963e+00 118 121 100
5.257382e-01 2.757002e-01 -2.676097e+00 151 146 150
5.206819e-01 2.791965e-01 -2.677184e+00 168 167 163
5.331243e-01 2.802240e-01 -2.675274e+00 136 132 130
2.878841e-01 3.064307e-01 -2.771006e+00 210 215 223
2.869435e-01 3.079828e-01 -2.771903e+00 207 210 217
6.037394e-02 3.507401e-01 -2.751254e+00 135 126 127
4.093386e-01 2.969959e-01 -2.783690e+00 208 201 193
4.187460e-01 3.013000e-01 -2.783239e+00 198 192 180
4.237680e-01 3.009851e-01 -2.787189e+00 198 191 181
4.921929e-01 3.016118e-01 -2.715570e+00 108 115 88
4.774405e-01 3.043928e-01 -2.715015e+00 195 199 202
4.367429e-01 3.082735e-01 -2.789633e+00 135 125 114
4.729366e-01 3.134587e-01 -2.719220e+00 43 61 65
5.677375e-01 3.035699e-01 -2.690445e+00 135 135 135
4.415302e-01 3.265389e-01 -2.793961e+00 200 191 182
4.458095e-01 3.337240e-01 -2.793803e+00 196 195 190
4.457835e-01 3.335392e-01 -2.795059e+00 196 195 190
4.663503e-01 3.340382e-01 -2.800008e+00 204 191 183
4.737458e-01 3.347191e-01 -2.801690e+00 52 33 34
2.569854e-01 3.722543e-01 -2.770225e+00 183 197 210
4.573498e-01 3.381412e-01 -2.799064e+00 204 199 197
1.581675e-01 3.902957e-01 -2.763553e+00 174 171 166
2.308470e-01 3.789509e-01 -2.808724e+00 125 125 124
4.701413e-01 3.456089e-01 -2.803926e+00 134 123 121
4.701068e-01 3.456388e-01 -2.803803e+00 134 123 121
3.257620e-01 3.752477e-01 -2.771597e+00 186 167 166
3.072076e-01 3.860405e-01 -2.776764e+00 131 130 129
2.682749e-01 3.989575e-01 -2.810186e+00 247 238 222
4.720570e-01 3.787474e-01 -2.808695e+00 49 45 42
5.286983e-01 3.839061e-01 -2.707213e+00 110 108 111
1.061019e-01 4.524171e-01 -2.775979e+00 123 123 118
4.379452e-01 3.987638e-01 -2.767641e+00 220 219 218
4.759245e-01 4.009949e-01 -2.802970e+00 151 151 152
8.110053e-02 4.941047e-01 -2.786030e+00 178 178 177
3.512914e-01 4.538709e-01 -2.685931e+00 205 186 175
3.529290e-01 4.545007e-01 -2.685997e+00 116 100 100
1.738356e-01 4.972113e-01 -2.803331e+00 197 194 189
1.999414e-01 5.179381e-01 -2.828799e+00 115 122 130
2.059892e-01 5.186131e-01 -2.828999e+00 73 79 91
1.924606e-01 5.252322e-01 -2.830369e+00 154 160 160
4.060574e-01 4.826540e-01 -2.701426e+00 65 59 69
8.750769e-02 5.504626e-01 -2.799916e+00 158 159 156
6.004465e-01 5.006647e-01 -2.742119e+00 239 219 211
1.097126e-01 6.497389e-01 -2.868660e+00 176 173 179
4.277131e-01 5.606026e-01 -2.674086e+00 37 40 56
2.270853e-01 6.331559e-01 -2.863000e+00 174 170 167
2.309599e-01 6.328283e-01 -2.866001e+00 121 115 112
2.153036e-01 6.380580e-01 -2.865520e+00 87 85 91
1.042725e-01 6.746155e-01 -2.878576e+00 176 171 165
1.078711e-01 6.755540e-01 -2.875500e+00 230 227 222
1.121513e-01 6.776269e-01 -2.875797e+00 41 36 40
1.121513e-01 6.776269e-01 -2.875797e+00 41 36 40
1.121513e-01 6.776269e-01 -2.875797e+00 41 36 40
3.121635e-01 6.131167e-01 -2.728060e+00 93 65 62
3.147567e-01 6.216868e-01 -2.731175e+00 93 70 66
6.182129e-01 -1.311502e-01 -2.751813e+00 93 81 75
4.051124e-01 -6.212885e-02 -2.749265e+00 97 98 103
3.296446e-01 3.713339e-03 -2.739683e+00 21 23 18
6.384783e-01 -4.885184e-02 -2.759233e+00 48 29 24
6.428100e-01 -4.401908e-02 -2.761555e+00 60 47 41
4.187058e-01 1.007361e-02 -2.750601e+00 177 177 175
3.226586e-01 4.920058e-02 -2.746962e+00 29 33 20
2.879304e-01 6.875351e-02 -2.753856e+00 23 26 17
4.898828e-01 7.958364e-02 -2.724096e+00 142 123 108
4.177381e-01 1.247876e-01 -2.767432e+00 182 176 164
4.691064e-01 1.167715e-01 -2.767710e+00 179 172 168
5.450551e-01 1.152976e-01 -2.744474e+00 31 17 20
4.933252e-01 1.343471e-01 -2.745639e+00 36 31 23
3.827916e-01 1.445764e-01 -2.770953e+00 43 41 37
4.049932e-01 1.650704e-01 -2.776419e+00 189 185 175
4.571238e-01 1.795278e-01 -2.763367e+00 103 98 95
3.573783e-01 2.001007e-01 -2.772013e+00 59 68 77
3.525620e-01 2.014234e-01 -2.771394e+00 60 65 76
3.886112e-01 2.163857e-01 -2.780792e+00 187 193 201
3.885621e-01 2.149460e-01 -2.783623e+00 187 193 201
3.416652e-01 2.246398e-01 -2.778618e+00 199 197 189
3.628698e-01 2.230492e-01 -2.781737e+00 66 74 85
2.932995e-01 2.425513e-01 -2.776852e+00 131 124 108
2.751316e-01 2.493732e-01 -2.780731e+00 30 26 17
3.881310e-01 2.336427e-01 -2.786323e+00 189 192 198
3.881310e-01 2.336427e-01 -2.786323e+00 189 192 198
5.532938e-01 2.334234e-01 -2.679262e+00 154 151 149
2.234555e-01 2.628916e-01 -2.777699e+00 11 13 5
2.234555e-01 2.628916e-01 -2.777699e+00 11 13 5
1.143627e-01 2.882804e-01 -2.742508e+00 168 169 164
5.290801e-01 2.470231e-01 -2.677273e+00 164 160 159
7.135054e-01 2.018708e-01 -2.790689e+00 150 135 120
7.139626e-01 2.012940e-01 -2.792340e+00 150 135 120
5.234391e-01 2.559016e-01 -2.674955e+00 161 157 156
2.396114e-01 2.781575e-01 -2.780097e+00 35 41 21
4.812440e-01 2.643108e-01 -2.667455e+00 131 130 132
4.812440e-01 2.643108e-01 -2.667455e+00 131 130 132
5.714826e-01 2.489461e-01 -2.685579e+00 40 46 67
1.159670e-01 3.059083e-01 -2.747212e+00 159 155 151
7.272700e-01 2.065577e-01 -2.795359e+00 208 201 183
4.938759e-01 2.670589e-01 -2.672536e+00 126 126 128
7.036835e-01 2.147289e-01 -2.791746e+00 116 107 103
7.036617e-01 2.147649e-01 -2.791480e+00 116 107 103
5.045474e-01 2.701097e-01 -2.674404e+00 129 129 129
1.540895e-01 3.113619e-01 -2.752883e+00 156 165 167
1.540895e-01 3.113619e-01 -2.752883e+00 156 165 167
5.595429e-01 2.796339e-01 -2.685749e+00 124 122 123
1.123254e-01 3.406463e-01 -2.750614e+00 120 120 120
5.967041e-01 2.788265e-01 -2.694248e+00 130 128 129
1.069239e-01 3.498650e-01 -2.752721e+00 163 162 157
9.141724e-02 3.577450e-01 -2.753328e+00 185 180 177
9.799036e-02 3.567679e-01 -2.756785e+00 184 181 175
1.513429e-01 3.528592e-01 -2.762070e+00 177 172 170
1.551484e-01 3.534286e-01 -2.761799e+00 160 162 160
1.114429e-01 3.613549e-01 -2.756141e+00 179 177 172
1.754719e-01 3.555148e-01 -2.766946e+00 133 137 140
1.754719e-01 3.555148e-01 -2.766946e+00 133 137 140
5.805519e-01 3.069217e-01 -2.691633e+00 179 178 183
4.469449e-01 3.239856e-01 -2.793701e+00 199 192 183
4.361991e-01 3.268836e-01 -2.790942e+00 200 193 182
4.304943e-01 3.286208e-01 -2.793766e+00 206 201 198
1.508578e-01 3.866556e-01 -2.764203e+00 169 165 162
4.639644e-01 3.329976e-01 -2.798596e+00 199 188 178
6.035018e-01 3.248756e-01 -2.699574e+00 52 55 60
2.087621e-01 3.767382e-01 -2.806901e+00 42 43 47
2.087790e-01 3.767864e-01 -2.806653e+00 42 43 47
6.142978e-01 3.246396e-01 -2.701967e+00 109 104 108
5.888330e-01 3.293783e-01 -2.700688e+00 117 115 117
4.621290e-01 3.393375e-01 -2.799876e+00 202 193 184
5.768830e-01 3.364395e-01 -2.703316e+00 117 115 116
1.599645e-01 4.122178e-01 -2.770083e+00 140 139 134
2.509199e-01 3.963686e-01 -2.811959e+00 158 144 143
3.989067e-01 3.842991e-01 -2.775972e+00 159 154 147
5.047672e-01 3.752956e-01 -2.701895e+00 142 141 142
9.521160e-02 4.678139e-01 -2.779497e+00 177 178 171
1.304567e-01 4.661701e-01 -2.780520e+00 163 161 162
5.711423e-01 3.964245e-01 -2.718289e+00 179 177 179
9.036339e-02 4.882283e-01 -2.784651e+00 159 159 154
5.030020e-01 4.234901e-01 -2.801799e+00 174 169 163
2.138302e-01 5.099559e-01 -2.825812e+00 145 154 161
2.135335e-01 5.099950e-01 -2.826678e+00 145 154 161
6.038965e-01 4.449780e-01 -2.686803e+00 209 168 175
6.060456e-01 4.595672e-01 -2.684227e+00 202 161 167
3.152302e-02 5.758253e-01 -2.823372e+00 171 170 139
4.733926e-01 5.043531e-01 -2.716088e+00 200 172 161
5.904318e-01 4.922437e-01 -2.738162e+00 213 207 189
5.931121e-01 4.942905e-01 -2.741082e+00 235 227 213
1.913600e-01 5.956066e-01 -2.851767e+00 53 58 64
7.497415e-02 6.248997e-01 -2.860979e+00 172 165 157
1.374133e-01 6.185045e-01 -2.847651e+00 194 204 202
2.246731e-01 6.032092e-01 -2.856749e+00 172 171 166
1.989680e-01 6.235282e-01 -2.848899e+00 182 181 185
6.284702e-01 5.418627e-01 -2.714496e+00 229 210 202
1.091543e-01 6.682413e-01 -2.874660e+00 193 188 183
2.541269e-01 7.307301e-01 -2.857441e+00 44 41 34
3.768065e-01 7.112904e-01 -2.861270e+00 199 189 198
4.632723e-01 7.038486e-01 -2.879534e+00 157 142 123
4.632723e-01 7.038486e-01 -2.879534e+00 157 142 123
4.839366e-01 6.745006e-01 -2.748703e+00 196 164 159
5.937582e-01 -1.001702e-01 -2.753570e+00 57 45 48
3.769184e-01 1.215104e-02 -2.744436e+00 111 112 80
3.454215e-01 6.908443e-02 -2.758948e+00 130 128 89
3.321413e-01 8.530444e-02 -2.755779e+00 38 41 22
3.085619e-01 9.700102e-02 -2.759346e+00 50 59 28
5.437222e-01 1.061849e-01 -2.734718e+00 138 145 145
4.072886e-01 1.166900e-01 -2.766294e+00 163 158 149
4.828910e-01 1.308424e-01 -2.745581e+00 135 73 88
1.907904e-01 1.865428e-01 -2.706640e+00 23 28 21
5.136271e-01 1.372353e-01 -2.744574e+00 147 140 162
5.136838e-01 1.375067e-01 -2.743161e+00 147 140 162
4.001992e-01 1.642172e-01 -2.774221e+00 152 148 134
3.306357e-01 2.128078e-01 -2.660371e+00 97 108 77
5.121950e-01 1.854284e-01 -2.677302e+00 142 140 141
4.244853e-01 1.730343e-01 -2.774144e+00 217 214 209
4.063942e-01 1.765636e-01 -2.777104e+00 202 204 206
4.065099e-01 1.763842e-01 -2.777487e+00 202 204 206
4.988671e-01 2.278552e-01 -2.668912e+00 156 154 157
4.301604e-01 2.323205e-01 -2.775312e+00 198 198 198
4.612368e-01 2.518115e-01 -2.668130e+00 155 152 156
9.834899e-02 2.910574e-01 -2.741252e+00 53 52 55
5.512750e-01 2.378884e-01 -2.683553e+00 154 151 147
4.658516e-01 2.551807e-01 -2.667210e+00 162 162 162
2.862042e-01 2.619056e-01 -2.780111e+00 190 187 182
5.027264e-01 2.582897e-01 -2.670531e+00 176 175 171
5.211155e-01 2.550584e-01 -2.675315e+00 145 141 140
7.293044e-01 2.094669e-01 -2.797492e+00 178 152 155
3.797114e-01 2.736427e-01 -2.775624e+00 77 80 59
5.096042e-01 2.756752e-01 -2.674372e+00 186 183 177
4.794784e-01 2.820641e-01 -2.675425e+00 129 129 131
5.110123e-01 2.789621e-01 -2.675778e+00 150 148 147
5.028698e-01 2.814483e-01 -2.676613e+00 155 154 160
3.159701e-01 2.968271e-01 -2.789370e+00 58 66 69
6.097304e-01 2.711826e-01 -2.697546e+00 120 117 116
4.918059e-01 2.994185e-01 -2.714827e+00 239 227 201
4.921320e-01 3.036214e-01 -2.717902e+00 234 212 161
4.904518e-01 3.074524e-01 -2.718049e+00 233 203 148
4.162564e-01 3.118437e-01 -2.788066e+00 194 190 186
1.456757e-01 3.629051e-01 -2.758333e+00 181 181 179
4.185399e-02 4.008589e-01 -2.759263e+00 141 140 136
9.869357e-02 3.938985e-01 -2.762376e+00 164 160 159
2.638984e-01 3.703378e-01 -2.769503e+00 158 169 171
2.864259e-01 3.682546e-01 -2.769874e+00 182 192 200
1.837603e-01 3.853066e-01 -2.765476e+00 164 162 158
1.481083e-01 3.950779e-01 -2.765929e+00 145 145 142
1.276304e-01 4.053172e-01 -2.766306e+00 175 174 170
5.383919e-01 3.498448e-01 -2.699811e+00 130 126 124
5.380302e-01 3.534245e-01 -2.701431e+00 129 126 127
1.514940e-01 4.120321e-01 -2.767460e+00 173 172 167
5.331782e-01 3.663615e-01 -2.701937e+00 119 117 120
1.050910e-02 4.612699e-01 -2.773814e+00 170 167 157
1.392338e-01 4.455175e-01 -2.776894e+00 175 172 171
4.292879e-01 3.994727e-01 -2.761361e+00 70 67 70
4.355173e-01 3.991626e-01 -2.765621e+00 42 37 41
1.068043e-01 4.633352e-01 -2.778358e+00 168 167 163
5.497675e-01 4.086065e-01 -2.714763e+00 117 114 115
-3.461305e-02 5.230904e-01 -2.840560e+00 174 175 172
2.138999e-01 5.257366e-01 -2.830083e+00 168 169 164
2.672714e-01 5.401088e-01 -2.788718e+00 142 144 141
9.109687e-02 6.170088e-01 -2.859792e+00 176 169 159
4.905818e-01 5.445999e-01 -2.732737e+00 203 186 171
3.106578e-01 5.979970e-01 -2.724981e+00 200 177 161
2.486676e-01 7.022440e-01 -2.871483e+00 23 25 20
4.293723e-01 6.993720e-01 -2.876716e+00 58 41 25
3.451964e-01 7.226572e-01 -2.878733e+00 104 110 103
4.259631e-01 7.147734e-01 -2.879843e+00 58 45 31
4.537434e-01 7.182117e-01 -2.846430e+00 248 244 219
4.537434e-01 7.182117e-01 -2.846430e+00 248 244 219
3.949306e-01 -1.677840e-01 -2.743920e+00 150 148 149
5.825600e-01 -1.794942e-01 -2.732596e+00 36 35 37
3.439642e-01 3.734255e-02 -2.746841e+00 121 117 82
3.278169e-01 4.282109e-02 -2.747655e+00 74 77 51
4.198531e-01 1.171644e-01 -2.763166e+00 190 181 172
3.815737e-01 1.318576e-01 -2.765318e+00 93 94 86
5.174590e-01 1.354889e-01 -2.742865e+00 47 30 48
3.266492e-01 2.021083e-01 -2.650817e+00 22 27 23
4.213872e-01 1.668787e-01 -2.776984e+00 200 194 188
3.951802e-01 1.734916e-01 -2.775387e+00 44 44 52
5.070788e-01 1.906784e-01 -2.679687e+00 117 116 121
4.248212e-01 1.777429e-01 -2.772095e+00 90 90 98
3.600853e-01 1.957181e-01 -2.773173e+00 60 66 73
4.122879e-01 1.885041e-01 -2.781581e+00 88 98 110
4.388720e-01 2.010431e-01 -2.768863e+00 79 78 83
4.192732e-01 2.176943e-01 -2.770346e+00 66 68 78
3.414774e-01 2.275910e-01 -2.781277e+00 83 85 94
4.755569e-01 2.429465e-01 -2.660759e+00 120 115 116
4.825821e-01 2.440294e-01 -2.667750e+00 127 125 128
3.851418e-01 2.328189e-01 -2.785355e+00 59 66 74
1.745586e-01 2.717148e-01 -2.777369e+00 113 107 92
5.280180e-01 2.427092e-01 -2.675827e+00 142 141 139
4.058240e-01 2.475426e-01 -2.774921e+00 100 99 105
5.365054e-01 2.485442e-01 -2.678076e+00 172 168 165
5.457333e-01 2.588426e-01 -2.679203e+00 148 144 143
4.710064e-01 2.763181e-01 -2.678050e+00 131 130 135
3.005437e-01 3.140161e-01 -2.790795e+00 45 53 64
5.778945e-01 2.904293e-01 -2.690173e+00 139 139 141
-3.362825e-03 3.662817e-01 -2.808139e+00 49 55 62
4.802147e-01 3.038250e-01 -2.718227e+00 60 62 72
5.865201e-01 2.931422e-01 -2.693194e+00 138 137 135
6.016181e-01 2.921274e-01 -2.696431e+00 112 110 113
4.768402e-01 3.094828e-01 -2.717777e+00 62 69 81
2.991267e-01 3.384513e-01 -2.763223e+00 24 38 51
5.669894e-01 3.144266e-01 -2.694187e+00 130 129 132
5.669894e-01 3.144266e-01 -2.694187e+00 130 129 132
5.918792e-01 3.177708e-01 -2.696876e+00 122 123 127
9.085320e-02 3.901897e-01 -2.762016e+00 164 161 158
5.980731e-01 3.187235e-01 -2.698213e+00 146 145 150
4.532726e-01 3.323437e-01 -2.797676e+00 149 142 132
4.532726e-01 3.323437e-01 -2.797676e+00 149 142 132
5.901750e-01 3.320960e-01 -2.700778e+00 135 133 138
4.435470e-02 4.275751e-01 -2.766409e+00 146 143 143
5.155741e-01 3.599543e-01 -2.699588e+00 145 146 148
5.159066e-01 3.597180e-01 -2.700789e+00 145 146 148
4.420360e-01 4.030432e-01 -2.768886e+00 194 186 181
1.326655e-01 4.584239e-01 -2.779153e+00 146 145 141
1.091358e-01 4.820225e-01 -2.784005e+00 191 192 187
2.728842e-01 4.528270e-01 -2.767804e+00 76 75 55
3.541254e-01 4.516608e-01 -2.689005e+00 193 165 155
2.608272e-01 5.279306e-01 -2.784315e+00 114 115 129
4.740347e-01 5.239243e-01 -2.721127e+00 37 36 44
2.422798e-01 5.881113e-01 -2.851444e+00 167 163 160
2.305655e-01 5.960314e-01 -2.853385e+00 182 178 175
4.070113e-01 7.202163e-01 -2.880744e+00 146 125 101
4.309096e-01 7.226621e-01 -2.879736e+00 87 68 65
3.823818e-01 -9.808096e-03 -2.742446e+00 97 95 61
2.714402e-01 5.507426e-02 -2.713531e+00 27 30 19
2.184372e-01 8.722582e-02 -2.704215e+00 80 85 60
3.374193e-01 7.680915e-02 -2.753674e+00 117 119 72
5.406588e-01 1.078061e-01 -2.737232e+00 40 39 32
5.468985e-01 1.141324e-01 -2.745098e+00 32 30 34
4.353593e-01 1.260819e-01 -2.773811e+00 188 183 177
4.352437e-01 1.272983e-01 -2.771008e+00 188 183 177
2.195192e-01 1.843272e-01 -2.717190e+00 24 30 21
4.922253e-01 1.386144e-01 -2.738348e+00 75 78 71
5.014355e-01 2.079568e-01 -2.674428e+00 126 126 128
3.382269e-01 2.261524e-01 -2.782459e+00 90 89 89
2.703928e-01 2.464091e-01 -2.769431e+00 33 35 28
1.554631e-01 2.624524e-01 -2.774310e+00 25 28 33
3.067271e-01 2.502231e-01 -2.780289e+00 175 170 164
1.215946e-01 2.930932e-01 -2.744146e+00 156 158 160
4.828635e-01 2.586989e-01 -2.667797e+00 127 127 129
4.008748e-01 2.515778e-01 -2.772455e+00 95 94 102
4.971223e-01 2.659761e-01 -2.672375e+00 133 132 131
1.953824e-01 2.933726e-01 -2.783010e+00 121 115 94
4.835815e-01 2.795264e-01 -2.677817e+00 130 131 133
3.797358e-01 2.770118e-01 -2.778032e+00 169 163 160
5.861395e-01 2.625820e-01 -2.694199e+00 124 121 122
5.861395e-01 2.625820e-01 -2.694199e+00 124 121 122
3.017776e-01 3.019656e-01 -2.786906e+00 39 48 57
1.786456e-01 3.596768e-01 -2.767587e+00 153 161 166
5.900628e-01 3.063822e-01 -2.693826e+00 116 115 120
2.918787e-01 3.450041e-01 -2.755446e+00 84 142 181
6.021767e-01 3.157715e-01 -2.698278e+00 113 111 116
1.396846e-01 3.884980e-01 -2.763156e+00 167 167 162
4.497365e-01 3.362010e-01 -2.797947e+00 186 184 172
3.275614e-01 3.628922e-01 -2.767300e+00 178 183 190
5.316412e-01 3.437327e-01 -2.701260e+00 121 115 117
5.237837e-01 3.620337e-01 -2.701100e+00 116 114 119
5.064842e-01 3.725618e-01 -2.700668e+00 112 110 113
5.312004e-01 3.789128e-01 -2.705418e+00 139 138 140
1.713762e-01 4.925040e-01 -2.802113e+00 131 127 126
3.463285e-01 4.744266e-01 -2.691883e+00 180 160 149
5.987931e-02 5.346249e-01 -2.792653e+00 176 175 171
2.651692e-01 5.328012e-01 -2.787032e+00 107 110 118
4.372491e-01 -4.659289e-02 -2.752712e+00 168 161 155
3.419593e-01 7.157276e-02 -2.754612e+00 123 122 74
4.120825e-01 8.086480e-02 -2.718473e+00 35 39 32
3.670257e-01 7.722147e-02 -2.762368e+00 123 120 83
5.349355e-01 1.021483e-01 -2.741605e+00 34 26 21
3.887057e-01 1.214548e-01 -2.756988e+00 30 29 24
3.512536e-01 1.416478e-01 -2.767139e+00 59 61 41
5.649567e-01 1.234554e-01 -2.743211e+00 109 114 118
3.281247e-01 1.962862e-01 -2.639262e+00 25 32 25
1.963884e-01 1.939829e-01 -2.714157e+00 18 22 18
3.580845e-01 1.685834e-01 -2.770691e+00 33 33 41
4.022749e-01 2.154428e-01 -2.782930e+00 71 84 93
5.369861e-01 2.261094e-01 -2.677394e+00 53 56 70
5.115466e-01 2.314102e-01 -2.673782e+00 104 108 107
5.367454e-01 2.317867e-01 -2.677787e+00 173 168 167
2.820225e-01 2.466827e-01 -2.779009e+00 116 113 96
3.021318e-01 2.886699e-01 -2.773130e+00 84 113 143
6.066085e-01 2.637626e-01 -2.699125e+00 163 158 152
5.739387e-01 2.794306e-01 -2.690780e+00 120 120 122
5.643869e-01 2.829468e-01 -2.685005e+00 124 123 123
5.907197e-01 2.924515e-01 -2.693632e+00 119 117 122
5.756998e-01 2.968167e-01 -2.689528e+00 126 126 128
1.820810e-01 3.558017e-01 -2.769404e+00 152 163 169
4.698108e-01 3.194712e-01 -2.716192e+00 48 52 63
4.605895e-01 3.220014e-01 -2.704045e+00 49 52 67
3.008357e-01 3.525169e-01 -2.764065e+00 208 215 213
5.429100e-01 3.339135e-01 -2.698929e+00 131 130 131
4.529732e-01 3.408563e-01 -2.799453e+00 82 81 86
4.652190e-01 3.873081e-01 -2.800763e+00 38 38 40
5.401728e-01 3.797240e-01 -2.710458e+00 100 96 99
6.625328e-01 4.627520e-01 -2.705137e+00 189 188 186
6.225886e-01 4.763282e-01 -2.695509e+00 44 52 62
1.177148e-01 5.818577e-01 -2.848877e+00 71 77 95
4.691837e-01 5.086350e-01 -2.715479e+00 88 78 87
4.806603e-01 5.778600e-01 -2.732257e+00 56 50 57
4.663081e-01 6.064198e-01 -2.749712e+00 101 87 94
4.200674e-01 2.831853e-03 -2.749805e+00 49 54 60
4.544799e-01 -3.640279e-03 -2.754457e+00 180 173 166
2.345080e-01 1.029464e-01 -2.711037e+00 43 49 40
3.367688e-01 8.605962e-02 -2.756067e+00 40 41 24
4.416365e-01 1.163207e-01 -2.765965e+00 181 176 172
3.111896e-01 2.534094e-01 -2.783289e+00 200 197 191
5.225676e-01 2.680526e-01 -2.673729e+00 140 138 139
2.295118e-01 3.383647e-01 -2.756754e+00 88 139 179
5.848896e-01 2.967936e-01 -2.693613e+00 144 142 145
5.527947e-01 3.059985e-01 -2.689400e+00 154 152 154
5.551442e-01 3.157250e-01 -2.694470e+00 151 151 153
5.378537e-01 3.365350e-01 -2.696548e+00 117 113 113
2.150448e-01 3.975692e-01 -2.810264e+00 36 36 45
2.409333e-01 3.983935e-01 -2.813954e+00 131 120 111
5.643363e-01 3.563121e-01 -2.708891e+00 106 106 106
1.252476e-01 4.377422e-01 -2.773924e+00 180 175 171
1.381998e-01 4.420633e-01 -2.776015e+00 161 160 155
7.281828e-02 5.473527e-01 -2.797283e+00 179 178 174
1.946885e-01 5.257210e-01 -2.830594e+00 135 136 138
4.963245e-01 5.460175e-01 -2.724051e+00 205 198 194
2.312407e-01 6.897025e-01 -2.858080e+00 27 28 29
4.644198e-01 -8.958082e-02 -2.744927e+00 130 127 84
3.234743e-01 2.244949e-02 -2.744455e+00 97 98 65
4.181561e-01 1.029766e-01 -2.760316e+00 52 47 51
4.077383e-01 1.187864e-01 -2.766682e+00 163 159 150
3.693577e-01 1.413208e-01 -2.759068e+00 33 38 31
1.246740e-01 2.284972e-01 -2.766615e+00 14 15 18
3.329073e-01 2.603906e-01 -2.780703e+00 187 184 179
1.478693e-01 2.890543e-01 -2.774272e+00 42 40 28
5.482675e-01 2.648566e-01 -2.680121e+00 151 147 144
6.028707e-01 2.799046e-01 -2.697110e+00 115 111 112
5.541542e-01 2.910562e-01 -2.684546e+00 174 173 171
2.210756e-01 3.396249e-01 -2.754842e+00 25 36 64
6.793111e-02 3.650870e-01 -2.753456e+00 146 142 141
5.287526e-01 3.689920e-01 -2.703844e+00 139 139 141
1.121359e-01 5.012285e-01 -2.789688e+00 158 157 153
3.601976e-01 4.585979e-01 -2.688522e+00 96 83 91
3.602348e-01 4.586285e-01 -2.688483e+00 96 83 91
6.174512e-01 4.605174e-01 -2.691782e+00 43 45 59
1.102970e-01 5.861208e-01 -2.846512e+00 186 184 175
4.371115e-01 5.751316e-01 -2.684944e+00 197 198 198
2.434645e-01 6.726408e-01 -2.877491e+00 47 48 53
4.547192e-01 7.115427e-01 -2.865655e+00 66 55 32
3.088121e-01 1.583136e-02 -2.729023e+00 18 18 16
2.141747e-01 1.128322e-01 -2.715025e+00 23 27 28
2.015716e-01 1.371743e-01 -2.720980e+00 17 21 22
1.943982e-01 1.479125e-01 -2.711136e+00 28 34 32
5.211453e-01 9.811469e-02 -2.733612e+00 34 31 24
2.571422e-01 2.014592e-01 -2.716094e+00 18 23 18
1.909746e-01 2.103521e-01 -2.725789e+00 68 75 65
1.909746e-01 2.103521e-01 -2.725789e+00 68 75 65
4.046709e-01 2.357695e-01 -2.760920e+00 41 40 47
3.242178e-01 2.856850e-01 -2.787502e+00 177 174 168
5.322354e-01 2.753466e-01 -2.677672e+00 126 124 127
5.977878e-01 3.081171e-01 -2.695796e+00 111 111 113
5.473079e-01 3.380445e-01 -2.700052e+00 131 131 131
5.894158e-01 3.442985e-01 -2.707113e+00 108 104 105
5.512623e-01 3.638080e-01 -2.705781e+00 105 104 105
4.095590e-01 3.814038e-01 -2.762741e+00 153 151 143
5.724618e-01 5.197716e-01 -2.740079e+00 255 255 255
4.293786e-01 1.056295e-01 -2.769075e+00 187 180 172
2.068050e-01 2.031260e-01 -2.723858e+00 16 20 19
3.992655e-01 2.640962e-01 -2.775422e+00 175 171 162
5.938013e-01 -1.793130e-01 -2.735221e+00 144 124 113
5.938013e-01 -1.793130e-01 -2.735221e+00 144 124 113
8.475630e-01 2.279802e-01 -2.804668e+00 33 33 31
4.749369e-01 3.917343e-01 -2.800072e+00 121 120 121
6.484904e-01 4.796737e-01 -2.701248e+00 188 185 180
1.389004e-01 6.082361e-01 -2.844642e+00 50 57 65
3.775287e-01 -1.138759e-01 -2.745090e+00 42 48 60
4.773045e-01 1.168381e-01 -2.745070e+00 170 163 156
1.721029e-01 2.882612e-01 -2.779041e+00 98 85 68
3.084727e-01 2.899438e-01 -2.775448e+00 35 44 53
3.266648e-01 3.494812e-01 -2.771731e+00 125 136 147
3.242660e-01 2.504180e-01 -2.778004e+00 188 183 177
6.228091e-01 5.314676e-01 -2.715304e+00 237 227 234
4.222017e-01 2.810426e-01 -2.776880e+00 205 198 192
5.430733e-01 5.309669e-01 -2.792462e+00 23 24 28
-3.875370e-01 -8.630970e-01 -2.647035e+00 57 63 85
-3.827397e-01 -8.641945e-01 -2.652064e+00 95 97 117
8.018319e-02 -7.970700e-01 -2.617730e+00 182 170 152
-4.714311e-01 -7.905144e-01 -2.732864e+00 127 119 111
-4.111362e-01 -7.393614e-01 -2.733131e+00 57 57 49
6.395685e-02 -7.261450e-01 -2.694797e+00 35 29 17
-1.369991e-01 -6.527760e-01 -2.587486e+00 195 194 191
6.681534e-02 -7.157461e-01 -2.695223e+00 173 167 146
7.841846e-02 -7.060375e-01 -2.695976e+00 215 203 207
7.841846e-02 -7.060375e-01 -2.695976e+00 215 203 207
5.578587e-02 -6.857445e-01 -2.688800e+00 107 106 117
1.079256e-01 -6.700902e-01 -2.700408e+00 45 44 39
4.950905e-02 -6.618001e-01 -2.697226e+00 151 150 157
8.061258e-02 -6.491595e-01 -2.699814e+00 96 98 96
-1.771516e-01 -5.424883e-01 -2.552485e+00 127 122 129
-1.771516e-01 -5.424883e-01 -2.552485e+00 127 122 129
-3.996779e-01 -5.424854e-01 -2.603261e+00 118 87 101
1.909136e-01 -6.075056e-01 -2.674507e+00 190 173 165
-3.237117e-01 -5.333821e-01 -2.612896e+00 197 199 189
5.971565e-01 -6.760814e-01 -2.695191e+00 36 29 23
5.119448e-01 -6.247634e-01 -2.624731e+00 157 156 161
-3.234341e-01 -4.936142e-01 -2.626578e+00 155 156 153
4.920742e-01 -5.965353e-01 -2.622613e+00 171 169 172
6.140491e-01 -6.361016e-01 -2.683801e+00 210 196 196
-3.779109e-01 -4.351791e-01 -2.632948e+00 155 156 150
-9.463434e-01 -3.568830e-01 -2.788373e+00 154 145 140
-9.544565e-01 -3.520827e-01 -2.791391e+00 137 127 126
-9.813644e-01 -3.476530e-01 -2.796399e+00 51 49 66
4.155841e-01 -4.946764e-01 -2.700183e+00 211 201 202
-2.383630e-01 -3.818683e-01 -2.640958e+00 129 129 125
-5.514803e-01 -3.640720e-01 -2.763281e+00 18 27 13
-9.761494e-01 -3.208027e-01 -2.797449e+00 57 52 89
4.029159e-01 -4.505979e-01 -2.699636e+00 185 191 189
-7.263867e-01 -2.978699e-01 -2.775205e+00 70 63 70
-1.742300e-01 -3.455033e-01 -2.636937e+00 204 203 199
9.211989e-01 -5.237535e-01 -2.721060e+00 116 101 106
4.677885e-01 -4.477334e-01 -2.711412e+00 159 162 166
9.275020e-01 -5.230445e-01 -2.729170e+00 224 211 202
-8.545295e-01 -2.599192e-01 -2.707523e+00 195 203 203
-7.878721e-01 -2.161773e-01 -2.756341e+00 27 27 37
-5.909380e-01 -2.177213e-01 -2.781909e+00 150 144 123
6.131083e-01 -3.794003e-01 -2.728594e+00 180 180 180
-8.139850e-01 -1.374711e-01 -2.670523e+00 145 126 135
-4.004987e-01 -2.059502e-01 -2.731629e+00 157 159 158
-4.004987e-01 -2.059502e-01 -2.731629e+00 157 159 158
-5.696316e-01 -1.602556e-01 -2.780499e+00 104 101 70
-2.736572e-01 -2.080388e-01 -2.741870e+00 195 192 187
-5.986211e-01 -1.383264e-01 -2.789126e+00 169 140 152
-7.941088e-01 -7.481100e-02 -2.667708e+00 229 233 231
-2.269560e-01 -1.746538e-01 -2.743756e+00 206 202 197
3.317743e-01 -2.640466e-01 -2.648289e+00 216 206 200
5.658170e-01 -2.772297e-01 -2.727505e+00 170 166 158
-6.344697e-01 -2.926768e-02 -2.713391e+00 68 69 78
-6.320047e-01 -2.569349e-02 -2.713753e+00 86 84 95
3.047712e-01 -1.958476e-01 -2.739362e+00 178 170 165
1.430633e-02 -6.150265e-02 -2.573304e+00 116 113 115
-4.951527e-01 1.110837e-01 -2.704238e+00 181 179 193
4.066120e-01 -5.892756e-02 -2.753087e+00 153 158 157
-4.482347e-01 1.342651e-01 -2.706582e+00 165 165 163
3.846527e-01 -3.282396e-02 -2.728416e+00 22 33 22
4.672684e-01 -2.239592e-02 -2.747003e+00 139 130 125
3.304758e-01 4.527546e-02 -2.746904e+00 39 38 25
3.419194e-01 7.350515e-02 -2.748449e+00 141 139 118
3.439313e-01 7.584863e-02 -2.748989e+00 58 60 44
-2.905923e-01 2.660201e-01 -2.799582e+00 49 44 44
-2.820034e-01 2.702721e-01 -2.800348e+00 155 152 137
-2.650167e-01 3.402343e-01 -2.809595e+00 123 126 129
-3.557279e-01 -9.100138e-01 -2.646795e+00 29 31 48
-3.487025e-01 -8.015398e-01 -2.713667e+00 39 35 33
-4.728493e-01 -8.043216e-01 -2.732352e+00 114 108 88
4.946299e-01 -8.264209e-01 -2.618968e+00 224 168 161
5.888830e-01 -8.000057e-01 -2.640656e+00 217 213 240
7.752427e-02 -7.074152e-01 -2.694453e+00 55 45 36
1.149099e-01 -6.719869e-01 -2.700085e+00 173 167 161
-2.901231e-01 -5.830012e-01 -2.590776e+00 225 231 237
9.345619e-02 -6.562610e-01 -2.698714e+00 174 170 167
1.060554e-01 -6.541852e-01 -2.700672e+00 174 170 167
4.096689e-01 -6.813317e-01 -2.648916e+00 145 140 134
1.021137e-01 -6.512275e-01 -2.700657e+00 171 167 164
8.207186e-02 -6.422341e-01 -2.699685e+00 161 158 154
-1.556368e-01 -5.582690e-01 -2.554992e+00 178 170 167
-3.949461e-01 -5.515224e-01 -2.603376e+00 135 108 123
3.252479e-01 -6.376419e-01 -2.709255e+00 45 49 49
-3.206447e-01 -5.292852e-01 -2.613420e+00 198 196 203
5.862420e-01 -6.775947e-01 -2.693027e+00 173 173 165
1.989224e-01 -5.944957e-01 -2.675570e+00 143 139 136
4.303165e-01 -5.428814e-01 -2.612820e+00 191 188 191
3.951522e-01 -5.368020e-01 -2.726344e+00 187 182 164
-2.637889e-01 -4.029436e-01 -2.640280e+00 47 50 65
-1.001725e+00 -3.468751e-01 -2.799624e+00 64 64 74
-8.583897e-01 -3.486301e-01 -2.777159e+00 111 97 95
-9.960561e-01 -3.306964e-01 -2.798549e+00 34 36 50
-6.349172e-01 -3.587418e-01 -2.769475e+00 129 127 128
8.170490e-01 -5.463197e-01 -2.700155e+00 141 137 105
-1.013358e+00 -3.077859e-01 -2.792469e+00 77 80 89
-3.116469e-01 -3.546175e-01 -2.644432e+00 32 38 51
-1.906466e-01 -3.293054e-01 -2.638718e+00 176 176 175
-8.911460e-01 -2.297649e-01 -2.718309e+00 165 172 181
-8.911460e-01 -2.297649e-01 -2.718309e+00 165 172 181
-1.725251e-01 -3.130748e-01 -2.639800e+00 194 191 184
-4.111924e-01 -2.495877e-01 -2.728053e+00 65 89 83
2.834839e-01 -3.469813e-01 -2.644666e+00 197 194 189
6.043407e-01 -3.961840e-01 -2.742156e+00 168 164 160
2.586234e-01 -3.381667e-01 -2.634915e+00 88 84 81
-1.614854e-01 -2.661079e-01 -2.644350e+00 84 94 106
-6.595837e-01 -1.547788e-01 -2.785256e+00 61 66 53
5.596944e-01 -3.446963e-01 -2.727676e+00 151 153 156
2.951297e-01 -3.009789e-01 -2.649858e+00 178 175 168
-8.219902e-01 -1.031887e-01 -2.677939e+00 179 165 155
-8.219902e-01 -1.031887e-01 -2.677939e+00 179 165 155
-6.300925e-01 -1.430866e-01 -2.783277e+00 114 111 103
-3.966828e-01 -1.820771e-01 -2.734019e+00 20 19 25
-1.389502e-01 -2.110063e-01 -2.648017e+00 125 133 134
-1.389502e-01 -2.110063e-01 -2.648017e+00 125 133 134
-5.781558e-01 -1.177719e-01 -2.782174e+00 128 127 94
-4.737871e-01 -1.323480e-01 -2.736146e+00 161 170 152
2.458561e-01 -2.282768e-01 -2.729398e+00 147 145 132
3.866789e-01 -2.506703e-01 -2.653699e+00 164 184 208
-3.108056e-01 -9.439522e-02 -2.749662e+00 190 187 184
4.940519e-01 -1.883618e-01 -2.724910e+00 196 181 176
3.875077e-01 -1.645592e-01 -2.741970e+00 167 166 169
4.507420e-01 -6.184072e-02 -2.751174e+00 178 173 167
4.543678e-01 6.241925e-04 -2.749402e+00 172 166 166
-2.941412e-01 2.687258e-01 -2.800282e+00 154 149 122
-2.845642e-01 2.783699e-01 -2.801923e+00 63 56 65
-6.910229e-02 1.379631e-01 -2.574796e+00 145 145 147
-2.898899e-01 3.100855e-01 -2.805732e+00 160 150 133
2.802642e-01 1.497250e-01 -2.755398e+00 101 108 78
-2.615871e-01 3.192632e-01 -2.807431e+00 161 155 143
-3.395979e-01 3.630243e-01 -2.814003e+00 141 130 112
3.130224e-01 -9.623892e-01 -2.609246e+00 22 27 51
-3.512468e-01 -9.074661e-01 -2.681002e+00 14 16 29
-4.084448e-01 -8.531741e-01 -2.666896e+00 113 126 126
4.608511e-01 -8.682206e-01 -2.615727e+00 65 65 68
-3.399255e-01 -7.975944e-01 -2.717849e+00 42 30 49
-4.269923e-01 -6.840391e-01 -2.625785e+00 189 193 187
6.080577e-01 -7.913105e-01 -2.643118e+00 198 201 220
-2.108396e-01 -6.273627e-01 -2.588679e+00 159 158 157
2.214712e-01 -6.307068e-01 -2.674713e+00 36 39 46
-3.972385e-01 -5.487459e-01 -2.602020e+00 162 130 145
3.951318e-01 -6.100671e-01 -2.645663e+00 167 166 164
-1.413571e-01 -5.011048e-01 -2.549411e+00 74 80 97
5.130681e-01 -6.019764e-01 -2.625204e+00 148 148 150
-3.889697e-01 -4.702043e-01 -2.631553e+00 153 153 150
3.367758e-01 -5.734876e-01 -2.722765e+00 161 151 131
2.571935e-01 -5.361173e-01 -2.717485e+00 35 31 27
-3.631942e-01 -4.304761e-01 -2.631660e+00 183 180 177
7.318083e-01 -5.930927e-01 -2.683794e+00 134 184 189
7.318083e-01 -5.930927e-01 -2.683794e+00 134 184 189
-7.647539e-01 -3.843249e-01 -2.765532e+00 45 46 62
8.257860e-01 -5.477456e-01 -2.700936e+00 144 137 83
-5.436090e-01 -3.454051e-01 -2.766313e+00 106 120 87
9.215395e-01 -5.395452e-01 -2.720846e+00 186 179 171
-6.252897e-01 -2.566749e-01 -2.779639e+00 143 133 129
2.764957e-01 -3.493692e-01 -2.644488e+00 170 165 161
-4.333332e-01 -2.196031e-01 -2.730810e+00 135 139 140
-7.544078e-01 -1.531396e-01 -2.747521e+00 39 43 53
-5.997767e-01 -1.491637e-01 -2.785522e+00 17 14 17
-6.252290e-01 -1.357509e-01 -2.787112e+00 37 36 42
3.633634e-01 -3.006217e-01 -2.607812e+00 148 151 159
2.863473e-01 -2.865790e-01 -2.642161e+00 250 251 252
2.863473e-01 -2.865790e-01 -2.642161e+00 250 251 252
-5.311297e-01 -1.402088e-01 -2.781643e+00 115 112 92
3.297112e-01 -2.826905e-01 -2.655637e+00 175 168 160
3.297112e-01 -2.826905e-01 -2.655637e+00 175 168 160
-1.312149e-01 -1.982188e-01 -2.649538e+00 141 129 115
-3.163675e-01 -1.590759e-01 -2.746020e+00 182 184 182
5.600270e-01 -2.627195e-01 -2.709180e+00 155 140 135
-2.135595e-01 -1.195139e-01 -2.748852e+00 189 188 179
-3.813455e-01 -2.631717e-02 -2.729668e+00 157 167 173
-2.150043e-01 -6.040454e-02 -2.752093e+00 183 182 177
4.060383e-01 -1.663476e-01 -2.743394e+00 154 154 157
-1.655210e-01 -5.563313e-02 -2.754275e+00 188 184 173
-2.271051e-01 -1.806159e-03 -2.758744e+00 188 187 182
3.642799e-01 -8.810595e-02 -2.745527e+00 54 58 68
4.071035e-01 -3.678261e-02 -2.746879e+00 167 165 164
4.467913e-01 -3.526536e-02 -2.749159e+00 183 179 176
4.854982e-01 -1.966199e-02 -2.742051e+00 150 152 112
3.545533e-01 8.603381e-02 -2.751727e+00 134 134 86
-3.427161e-01 3.588894e-01 -2.810638e+00 143 133 109
-1.162146e-02 1.486175e-01 -2.579584e+00 138 139 142
-9.000758e-02 2.144527e-01 -2.587653e+00 42 55 61
-2.964971e-01 -1.016420e+00 -2.690459e+00 22 23 24
4.812918e-01 -9.015838e-01 -2.580359e+00 132 122 118
3.085631e-01 -8.400916e-01 -2.655533e+00 136 142 143
-2.742654e-01 -8.047135e-01 -2.704815e+00 42 32 37
-4.333911e-01 -7.900193e-01 -2.729526e+00 111 97 88
-1.942211e-01 -6.411424e-01 -2.589847e+00 154 150 147
7.710848e-02 -6.948752e-01 -2.696869e+00 165 156 148
5.310947e-02 -6.618683e-01 -2.698764e+00 166 166 166
5.902669e-01 -6.875157e-01 -2.691152e+00 185 170 182
1.565855e-01 -6.140968e-01 -2.706349e+00 255 221 247
-1.650983e-01 -5.024709e-01 -2.544267e+00 98 98 79
-9.561993e-02 -5.065089e-01 -2.547705e+00 180 179 174
-3.197105e-01 -4.990664e-01 -2.626945e+00 190 190 185
-2.952743e-01 -4.738035e-01 -2.627032e+00 50 54 64
-3.929661e-01 -4.127063e-01 -2.634096e+00 61 67 83
-6.550045e-01 -3.470535e-01 -2.773791e+00 99 93 76
9.052483e-01 -5.313474e-01 -2.721196e+00 182 177 169
4.748330e-01 -4.512227e-01 -2.712130e+00 147 152 159
6.679343e-01 -4.755919e-01 -2.715115e+00 215 204 187
-5.168137e-01 -3.004780e-01 -2.768041e+00 50 62 42
-4.346909e-01 -2.661532e-01 -2.726880e+00 143 142 140
-4.369088e-01 -2.512488e-01 -2.729752e+00 63 86 72
4.558591e-01 -3.737240e-01 -2.716342e+00 48 55 71
-4.204349e-01 -1.192030e-01 -2.741987e+00 30 41 39
-4.156665e-01 -1.116530e-01 -2.735274e+00 129 135 131
-5.795298e-01 -6.026638e-03 -2.731653e+00 170 149 134
-2.133184e-01 -9.897386e-03 -2.758211e+00 174 173 164
9.828379e-03 9.932342e-02 -2.571929e+00 150 149 146
-2.739062e-02 1.546403e-01 -2.579225e+00 144 145 149
2.961714e-01 -8.637399e-01 -2.656052e+00 162 162 162
-3.155529e-01 -8.015064e-01 -2.715843e+00 26 31 26
-3.786478e-01 -7.694815e-01 -2.710682e+00 101 111 88
-2.189284e-01 -6.337818e-01 -2.587446e+00 55 60 79
4.769363e-02 -6.771940e-01 -2.694019e+00 67 72 77
5.281101e-02 -6.757814e-01 -2.696064e+00 57 58 63
1.603997e-01 -6.120926e-01 -2.706482e+00 94 56 66
2.839236e-01 -5.612260e-01 -2.718449e+00 95 99 67
-5.198488e-01 -3.492558e-01 -2.765712e+00 65 82 50
-6.050294e-01 -2.963171e-01 -2.773704e+00 113 103 71
-6.209361e-01 -2.398032e-01 -2.777334e+00 142 134 124
-7.424238e-01 -1.266239e-01 -2.746861e+00 44 51 61
2.756773e-01 -2.946549e-01 -2.633150e+00 151 157 169
2.718709e-01 -2.347530e-01 -2.732673e+00 182 170 156
-3.957203e-01 -5.608166e-02 -2.727792e+00 159 170 172
4.061288e-01 -1.771758e-01 -2.740906e+00 155 156 158
4.675946e-01 -1.611928e-01 -2.745042e+00 186 179 171
-5.164812e-02 -6.270998e-02 -2.737576e+00 18 18 20
4.579579e-01 -8.202784e-02 -2.738958e+00 164 159 133
3.358421e-02 -2.505735e-02 -2.587873e+00 181 161 137
4.599189e-01 -9.257731e-03 -2.747683e+00 158 153 150
-2.841841e-01 2.662605e-01 -2.802457e+00 76 77 73
-3.482732e-02 1.311542e-01 -2.575419e+00 120 125 128
-3.665321e-01 -8.743602e-01 -2.655493e+00 114 130 141
-3.285109e-01 -8.202051e-01 -2.706656e+00 19 23 26
-3.487184e-01 -5.194197e-01 -2.614084e+00 161 190 209
-1.158269e-01 -5.084907e-01 -2.549587e+00 164 162 162
4.715616e-01 -5.829858e-01 -2.618141e+00 170 170 172
-8.450046e-01 -2.916351e-01 -2.700150e+00 116 118 120
-1.569472e-01 -2.720697e-01 -2.643734e+00 137 146 153
-6.117979e-01 -1.936105e-01 -2.782847e+00 160 150 140
-7.802980e-01 -1.565377e-01 -2.679901e+00 57 63 75
-3.211202e-01 -2.201759e-01 -2.740259e+00 58 66 79
3.319757e-01 -2.664302e-01 -2.648175e+00 179 172 164
-4.928328e-01 1.257543e-01 -2.696303e+00 109 125 138
-2.482241e-01 1.042672e-01 -2.753572e+00 25 25 32
5.276901e-01 4.675609e-02 -2.659112e+00 241 228 186
2.878203e-01 1.126625e-01 -2.750207e+00 31 41 25
3.685351e-01 1.080006e-01 -2.754534e+00 137 135 97
-1.723040e-02 1.383373e-01 -2.578133e+00 139 142 144
-7.647698e-03 1.617165e-01 -2.581914e+00 135 137 140
-3.475907e-01 -9.086591e-01 -2.656201e+00 95 108 122
-3.292297e-01 -9.086312e-01 -2.695780e+00 17 22 30
-3.927882e-01 -8.613547e-01 -2.618987e+00 127 140 157
-3.927882e-01 -8.613547e-01 -2.618987e+00 127 140 157
-3.906616e-01 -8.599765e-01 -2.657522e+00 117 125 142
9.544176e-02 -6.473354e-01 -2.701253e+00 165 164 158
2.043709e-01 -6.131688e-01 -2.675149e+00 117 112 109
-2.197857e-01 -4.807522e-01 -2.550277e+00 183 183 185
-3.148584e-01 -4.724326e-01 -2.613981e+00 148 151 153
2.763170e-01 -5.589614e-01 -2.717679e+00 26 30 29
-4.195176e-01 -3.779913e-01 -2.628881e+00 28 34 36
-4.195176e-01 -3.779913e-01 -2.628881e+00 28 34 36
5.416626e-01 -4.762127e-01 -2.714357e+00 45 46 49
-6.698360e-01 -2.984811e-01 -2.774220e+00 158 148 139
-8.241804e-01 -2.696633e-01 -2.726271e+00 48 45 52
6.630317e-01 -4.746252e-01 -2.718377e+00 182 173 158
6.643841e-01 -4.667140e-01 -2.711270e+00 249 241 229
-6.419551e-01 -2.774880e-01 -2.772521e+00 157 148 139
-8.073145e-01 -2.206408e-01 -2.723734e+00 53 48 54
3.486365e-01 -2.616841e-01 -2.659995e+00 96 84 72
-1.924387e-01 -8.384144e-02 -2.753473e+00 185 182 175
-2.104682e-01 -2.827459e-02 -2.756380e+00 99 104 110
-2.338245e-01 -1.916668e-02 -2.748402e+00 32 32 32
-3.173336e-01 4.048103e-02 -2.757436e+00 88 104 94
