ply
format ascii 1.0
element face 0
property list uchar int vertex_indices
element vertex 921
property float x
property float y
property float z
property uchar diffuse_red
property uchar diffuse_green
property uchar diffuse_blue
end_header
-5.246722e-03 8.519301e-02 -2.561933e+00 41 41 46
-6.112480e-02 8.289320e-02 -2.559212e+00 184 187 191
-4.624279e-01 8.448303e-02 -2.698356e+00 146 144 145
-4.631960e-01 8.071915e-02 -2.696394e+00 147 145 146
3.123357e-01 5.374198e-02 -2.752995e+00 36 44 28
-3.584549e-01 5.888015e-02 -2.659157e+00 35 36 48
-2.198287e-02 6.068720e-02 -2.524409e+00 204 199 203
-2.612160e-01 4.457248e-02 -2.761958e+00 166 166 169
-4.819446e-02 5.948450e-02 -2.519779e+00 188 187 186
-3.357480e-02 5.674527e-02 -2.521178e+00 164 168 171
-5.891555e-02 4.591395e-02 -2.519064e+00 201 199 201
-5.891555e-02 4.591395e-02 -2.519064e+00 201 199 201
7.403625e-01 2.978705e-02 -2.637918e+00 207 197 191
-2.451408e-01 5.286178e-03 -2.758935e+00 200 197 192
7.051586e-01 2.744616e-03 -2.755854e+00 234 223 222
-4.400132e-01 9.985430e-03 -2.677376e+00 53 44 36
-2.541535e-01 -2.952633e-03 -2.757245e+00 194 190 186
7.068223e-01 1.856883e-04 -2.714805e+00 216 210 205
5.737737e-02 1.399913e-02 -2.593126e+00 43 63 82
4.036735e-02 7.235714e-03 -2.591054e+00 36 53 69
7.649183e-01 -4.966318e-03 -2.650193e+00 174 176 171
-4.170107e-01 -1.246815e-02 -2.675918e+00 167 152 155
-2.155697e-01 -2.468514e-02 -2.756248e+00 63 61 65
-2.155697e-01 -2.468514e-02 -2.756248e+00 63 61 65
-3.784571e-01 -2.244829e-02 -2.725116e+00 34 43 47
-3.784571e-01 -2.244829e-02 -2.725116e+00 34 43 47
8.025170e-01 -1.823979e-02 -2.640883e+00 210 194 226
-6.278085e-01 -3.248097e-02 -2.701702e+00 29 28 34
-3.970367e-01 -3.813608e-02 -2.724193e+00 182 184 197
7.228376e-01 -4.166777e-02 -2.631675e+00 192 170 166
3.778640e-02 -2.665403e-02 -2.582088e+00 37 32 32
-2.157958e-01 -6.683675e-02 -2.751162e+00 209 204 200
-2.127531e-01 -6.790382e-02 -2.751461e+00 205 201 197
5.269147e-01 -8.106790e-02 -2.751626e+00 172 166 151
5.587479e-01 -8.368740e-02 -2.753413e+00 102 87 90
7.324983e-01 -7.444887e-02 -2.654270e+00 245 245 247
-2.551879e-01 -8.813945e-02 -2.747315e+00 206 202 199
7.488633e-01 -7.208488e-02 -2.616105e+00 248 241 246
5.642847e-01 -8.752787e-02 -2.726587e+00 162 141 139
6.106921e-01 -1.027916e-01 -2.755227e+00 81 73 70
7.695493e-01 -7.618815e-02 -2.593528e+00 177 184 197
5.447497e-01 -1.008901e-01 -2.749595e+00 48 46 49
6.016716e-01 -1.052918e-01 -2.750118e+00 64 63 58
-4.405995e-01 -9.998873e-02 -2.717986e+00 25 31 28
7.692936e-01 -8.182685e-02 -2.574838e+00 196 189 205
6.333818e-01 -1.184861e-01 -2.751478e+00 167 160 144
-1.945959e-01 -1.095742e-01 -2.745301e+00 209 206 200
4.155632e-01 -1.137906e-01 -2.752176e+00 203 200 193
-2.759273e-01 -1.143956e-01 -2.743331e+00 204 201 196
7.028803e-01 -1.073222e-01 -2.662362e+00 189 170 144
2.208242e-01 -9.333429e-02 -2.655822e+00 131 131 121
6.408142e-01 -1.292082e-01 -2.750508e+00 182 173 159
6.180088e-01 -1.303081e-01 -2.748360e+00 168 161 151
6.180088e-01 -1.303081e-01 -2.748360e+00 168 161 151
-6.987418e-02 -1.113242e-01 -2.710237e+00 134 114 105
7.166664e-01 -1.098596e-01 -2.623429e+00 202 194 191
-2.026702e-01 -1.356038e-01 -2.743060e+00 212 205 197
7.086698e-01 -1.187542e-01 -2.617147e+00 216 218 222
-1.773141e-01 -1.379944e-01 -2.743853e+00 209 201 188
6.725034e-01 -1.365030e-01 -2.682595e+00 105 117 139
2.754615e-01 -1.185260e-01 -2.657723e+00 189 186 179
6.135988e-01 -1.556529e-01 -2.743268e+00 67 64 54
6.075663e-01 -1.562836e-01 -2.742404e+00 64 62 57
-4.579948e-02 -1.369487e-01 -2.707184e+00 124 100 94
2.737377e-01 -1.253481e-01 -2.657122e+00 133 126 133
6.665729e-01 -1.446519e-01 -2.656118e+00 217 168 193
6.669092e-01 -1.444731e-01 -2.652535e+00 63 31 38
6.669092e-01 -1.444731e-01 -2.652535e+00 63 31 38
2.741408e-01 -1.288942e-01 -2.655498e+00 81 37 54
6.315549e-01 -1.706042e-01 -2.734968e+00 211 208 201
6.360724e-01 -1.739275e-01 -2.734552e+00 195 193 193
6.515654e-01 -1.663747e-01 -2.672297e+00 222 232 233
2.724544e-01 -1.476438e-01 -2.656873e+00 187 185 174
2.014946e-01 -1.364767e-01 -2.617573e+00 200 210 222
-3.919736e-01 -1.849520e-01 -2.726091e+00 158 157 163
3.839788e-01 -1.962507e-01 -2.740390e+00 173 171 181
-5.229596e-01 -2.212939e-01 -2.742636e+00 93 93 104
-3.712937e-01 -2.031060e-01 -2.718739e+00 147 148 137
-2.700916e-01 -2.104699e-01 -2.734081e+00 201 196 192
-2.352721e-01 -2.128226e-01 -2.733947e+00 206 204 191
-3.133807e-01 -2.160449e-01 -2.728965e+00 193 192 199
-5.067995e-01 -2.495822e-01 -2.750432e+00 25 19 15
9.058455e-01 -2.521398e-01 -2.647125e+00 237 238 228
9.058455e-01 -2.521398e-01 -2.647125e+00 237 238 228
9.058455e-01 -2.521398e-01 -2.647125e+00 237 238 228
9.016745e-01 -2.748682e-01 -2.684804e+00 250 244 239
7.573844e-01 -2.801452e-01 -2.732156e+00 109 112 83
8.872849e-01 -2.882281e-01 -2.713546e+00 205 199 207
-4.561682e-01 -2.623732e-01 -2.709776e+00 132 128 128
-4.947644e-01 -2.670103e-01 -2.708923e+00 186 175 185
8.921893e-01 -2.687191e-01 -2.642093e+00 229 230 229
7.335936e-01 -2.881024e-01 -2.728508e+00 126 117 106
8.843791e-01 -2.944229e-01 -2.674363e+00 236 243 231
7.619278e-01 -3.048107e-01 -2.732159e+00 200 193 200
8.730645e-01 -3.023308e-01 -2.668540e+00 232 238 247
8.670722e-01 -3.148830e-01 -2.684203e+00 47 49 68
8.670722e-01 -3.148830e-01 -2.684203e+00 47 49 68
2.895448e-01 -2.723601e-01 -2.690171e+00 214 204 198
9.255370e-01 -3.232817e-01 -2.650012e+00 216 229 213
9.282747e-01 -3.209121e-01 -2.642206e+00 87 95 140
9.159248e-01 -3.275724e-01 -2.652763e+00 102 86 105
9.214872e-01 -3.281953e-01 -2.646389e+00 133 147 146
9.219857e-01 -3.265584e-01 -2.639179e+00 97 107 148
6.930756e-01 -3.281624e-01 -2.691741e+00 114 118 116
9.139572e-01 -3.353685e-01 -2.645014e+00 219 230 220
6.959263e-01 -3.280313e-01 -2.680563e+00 171 171 166
-1.631258e-01 -2.845931e-01 -2.636483e+00 157 159 175
-2.003446e-01 -2.805472e-01 -2.613776e+00 15 11 16
-2.003446e-01 -2.805472e-01 -2.613776e+00 15 11 16
6.720915e-01 -3.436414e-01 -2.684871e+00 135 151 174
6.879913e-01 -3.370749e-01 -2.658682e+00 145 144 160
4.252855e-02 -2.915999e-01 -2.653581e+00 175 175 182
2.421674e-01 -3.187256e-01 -2.706173e+00 183 190 172
-1.336019e-01 -3.090320e-01 -2.665228e+00 26 27 31
6.250509e-01 -3.731941e-01 -2.733573e+00 176 175 167
2.368045e-01 -3.274264e-01 -2.703014e+00 202 180 157
8.284457e-01 -3.686759e-01 -2.646227e+00 229 229 222
-9.414045e-02 -3.776916e-01 -2.712789e+00 25 27 25
7.396535e-01 -3.829463e-01 -2.599587e+00 211 210 206
1.532917e-01 -3.867339e-01 -2.716010e+00 168 158 152
4.912863e-01 -4.099099e-01 -2.714880e+00 165 173 176
2.065602e-01 -3.869202e-01 -2.707755e+00 223 232 239
-1.844227e-01 -3.512958e-01 -2.620941e+00 40 41 62
7.831634e-01 -4.026233e-01 -2.601219e+00 207 208 206
2.220278e-01 -3.461443e-01 -2.621728e+00 128 151 159
-2.296095e-01 -3.713609e-01 -2.626592e+00 183 179 180
-2.345900e-01 -3.892159e-01 -2.608624e+00 156 168 169
5.070769e-01 -4.782348e-01 -2.733374e+00 140 139 122
2.400745e-01 -4.247259e-01 -2.666327e+00 222 209 209
2.399292e-01 -4.267187e-01 -2.649403e+00 160 175 180
4.219271e-01 -4.821971e-01 -2.690786e+00 98 89 119
2.277927e-01 -4.371909e-01 -2.624427e+00 53 60 67
-2.779208e-01 -4.496489e-01 -2.596202e+00 39 42 56
-2.779208e-01 -4.496489e-01 -2.596202e+00 39 42 56
-3.078295e-01 -4.673589e-01 -2.587954e+00 23 31 40
-2.854546e-01 -4.715336e-01 -2.597894e+00 152 154 141
4.350997e-01 -5.048342e-01 -2.646685e+00 110 110 119
2.323211e-01 -5.074425e-01 -2.673299e+00 29 36 29
4.278164e-01 -5.096810e-01 -2.644502e+00 104 104 115
4.094136e-01 -5.255595e-01 -2.667120e+00 176 171 190
-2.734291e-01 -4.802590e-01 -2.584167e+00 215 217 212
-2.955732e-01 -4.965244e-01 -2.594773e+00 201 201 204
-2.955732e-01 -4.965244e-01 -2.594773e+00 201 201 204
4.280404e-01 -5.137439e-01 -2.632095e+00 188 182 186
-3.663316e-01 -5.039484e-01 -2.578806e+00 165 167 154
4.106131e-01 -5.255314e-01 -2.643719e+00 108 113 113
-3.118105e-01 -5.013458e-01 -2.584508e+00 183 177 187
4.139097e-01 -5.230859e-01 -2.628661e+00 180 169 179
-4.303761e-01 -5.231793e-01 -2.548694e+00 99 110 110
-3.076217e-01 -5.178444e-01 -2.580555e+00 11 14 21
1.994809e-02 -5.499532e-01 -2.672796e+00 42 37 42
3.920193e-01 -5.402616e-01 -2.633170e+00 85 77 70
2.055527e-01 -5.608169e-01 -2.660408e+00 198 145 102
2.183850e-01 -5.671615e-01 -2.660732e+00 179 116 90
-6.163653e-03 6.685627e-01 -2.811194e+00 236 230 228
4.909190e-01 6.983558e-01 -2.810281e+00 109 107 104
1.846301e-02 6.625797e-01 -2.835828e+00 152 130 134
5.786069e-01 6.489054e-01 -2.736840e+00 188 188 179
1.757598e-01 6.449486e-01 -2.830856e+00 108 104 122
5.055553e-01 6.343560e-01 -2.744441e+00 247 239 248
1.415915e-02 6.429640e-01 -2.835201e+00 216 205 205
2.978169e-01 6.499104e-01 -2.840771e+00 179 167 168
3.026807e-01 6.455444e-01 -2.846572e+00 89 87 91
6.271056e-01 6.455906e-01 -2.747548e+00 114 121 118
6.740040e-01 6.341237e-01 -2.720733e+00 44 50 73
6.551191e-01 6.257924e-01 -2.713935e+00 70 76 110
2.005931e-01 6.141616e-01 -2.828682e+00 47 44 56
6.469576e-01 6.173293e-01 -2.726203e+00 57 47 86
-4.541325e-02 6.230268e-01 -2.862846e+00 179 175 168
-5.068186e-02 6.095530e-01 -2.859715e+00 67 76 77
5.538017e-01 5.743789e-01 -2.731511e+00 190 185 191
-1.422439e-01 5.836646e-01 -2.850961e+00 36 43 53
-1.307283e-01 5.821172e-01 -2.849113e+00 61 65 76
-1.065624e-01 5.766963e-01 -2.850770e+00 146 149 156
-1.265988e-01 5.747813e-01 -2.843077e+00 98 105 112
2.042274e-01 5.613541e-01 -2.831648e+00 110 109 107
-1.252134e-01 5.765477e-01 -2.850403e+00 40 44 52
-1.584494e-01 5.729936e-01 -2.845718e+00 28 34 45
-1.099906e-01 5.692939e-01 -2.849075e+00 152 158 157
2.831945e-01 5.393974e-01 -2.786759e+00 209 202 200
6.460658e-02 5.334307e-01 -2.787756e+00 186 182 181
2.989073e-01 5.357215e-01 -2.780942e+00 247 237 240
1.754863e-02 5.420895e-01 -2.820800e+00 29 31 29
-6.524355e-02 5.401065e-01 -2.818558e+00 99 102 111
-1.893982e-02 5.304140e-01 -2.838006e+00 137 139 144
-1.678315e-01 5.321129e-01 -2.838313e+00 48 52 64
6.206454e-01 5.196070e-01 -2.713550e+00 247 246 250
6.206454e-01 5.196070e-01 -2.713550e+00 247 246 250
9.560493e-02 4.865526e-01 -2.779478e+00 166 165 160
9.593494e-02 4.750886e-01 -2.779556e+00 131 127 128
9.593494e-02 4.750886e-01 -2.779556e+00 131 127 128
1.272682e-01 4.735640e-01 -2.783862e+00 158 154 153
2.160681e-02 4.661726e-01 -2.774613e+00 153 149 148
7.338606e-02 4.664206e-01 -2.777328e+00 154 150 149
1.353088e-01 4.656781e-01 -2.780366e+00 167 166 164
1.366928e-01 4.583270e-01 -2.780236e+00 154 150 147
7.190958e-01 4.945860e-01 -2.709741e+00 242 240 223
5.509604e-01 4.804169e-01 -2.770898e+00 68 74 66
2.979846e-01 4.587614e-01 -2.791189e+00 86 85 100
7.252033e-01 4.857702e-01 -2.709000e+00 223 214 207
1.330997e-01 4.420903e-01 -2.778212e+00 154 150 149
2.426219e-01 4.520568e-01 -2.805124e+00 143 126 107
-5.530367e-01 4.759533e-01 -2.685156e+00 45 35 34
-2.294956e-02 4.513764e-01 -2.826446e+00 173 162 150
5.366267e-01 4.680912e-01 -2.796156e+00 114 104 98
-3.081816e-01 4.454905e-01 -2.742325e+00 16 19 10
2.410485e-01 4.381654e-01 -2.821277e+00 73 62 58
2.410485e-01 4.381654e-01 -2.821277e+00 73 62 58
5.700168e-01 4.503398e-01 -2.769343e+00 44 42 43
5.717953e-01 4.485287e-01 -2.771860e+00 253 253 255
-5.071341e-01 4.484416e-01 -2.717446e+00 188 177 193
5.091687e-01 4.226710e-01 -2.797117e+00 171 164 158
2.950879e-01 4.035011e-01 -2.800788e+00 208 195 185
-6.292798e-01 4.517848e-01 -2.718138e+00 107 101 113
-5.833565e-02 4.046804e-01 -2.815004e+00 155 158 154
-6.318101e-01 4.492256e-01 -2.715575e+00 216 206 213
-6.230187e-01 4.480639e-01 -2.719687e+00 46 33 64
-6.331126e-01 4.424190e-01 -2.716626e+00 45 44 37
-5.701365e-01 4.289005e-01 -2.713234e+00 185 178 160
2.501440e-01 3.928626e-01 -2.816066e+00 110 99 95
-5.336442e-01 4.181774e-01 -2.709008e+00 198 199 163
-2.107016e-01 3.983172e-01 -2.799084e+00 157 167 175
-6.047989e-01 4.315043e-01 -2.715466e+00 46 50 45
2.434315e-01 3.879545e-01 -2.815144e+00 149 143 144
-2.868207e-01 4.094500e-01 -2.834736e+00 167 154 139
-3.494035e-01 4.125957e-01 -2.825416e+00 29 33 34
-3.511918e-01 4.091648e-01 -2.828250e+00 24 25 28
-2.991449e-01 4.043685e-01 -2.835700e+00 115 110 99
2.915346e-01 3.710247e-01 -2.771897e+00 211 223 231
-3.140293e-01 4.046194e-01 -2.835411e+00 104 104 100
-2.739003e-01 4.001653e-01 -2.832828e+00 63 64 59
-2.950367e-01 3.912765e-01 -2.830810e+00 68 72 75
1.088501e-01 3.504600e-01 -2.753606e+00 180 179 175
-2.423449e-01 3.810273e-01 -2.830653e+00 178 166 154
7.224484e-01 3.783932e-01 -2.688891e+00 175 172 167
-3.387365e-01 3.800167e-01 -2.831294e+00 93 89 79
6.470221e-01 3.617364e-01 -2.700826e+00 190 188 194
4.911901e-01 3.645147e-01 -2.809222e+00 115 119 85
3.447651e-02 3.429131e-01 -2.805589e+00 172 162 148
-3.815892e-01 3.733226e-01 -2.826544e+00 42 37 42
-4.562579e-01 3.773558e-01 -2.813098e+00 21 27 34
-3.049011e-01 3.627650e-01 -2.829049e+00 67 68 73
-2.702864e-01 3.503119e-01 -2.826657e+00 76 71 77
-2.604811e-01 3.304223e-01 -2.823219e+00 146 137 138
-8.856004e-02 3.085755e-01 -2.777796e+00 151 134 136
-4.647792e-01 3.413583e-01 -2.827182e+00 33 33 35
-2.642318e-01 3.205907e-01 -2.820624e+00 90 80 69
1.356859e-01 2.825737e-01 -2.775342e+00 199 199 201
4.631033e-01 2.824969e-01 -2.760519e+00 248 247 246
-2.688002e-01 2.899109e-01 -2.814792e+00 72 67 63
-4.436900e-01 3.029771e-01 -2.819401e+00 131 118 105
2.328312e-01 2.707246e-01 -2.784875e+00 160 159 138
4.662365e-01 2.770951e-01 -2.763912e+00 253 251 253
-4.757814e-01 2.857880e-01 -2.818395e+00 179 165 162
3.717567e-01 2.590228e-01 -2.793034e+00 146 144 131
-2.254483e-01 2.636675e-01 -2.808434e+00 56 21 32
-2.254483e-01 2.636675e-01 -2.808434e+00 56 21 32
4.615125e-01 2.286782e-01 -2.735519e+00 211 193 194
-3.382112e-01 2.373527e-01 -2.806508e+00 155 146 142
2.779808e-01 2.165585e-01 -2.777961e+00 34 37 14
-4.474759e-01 2.373238e-01 -2.811093e+00 52 63 45
-5.103319e-01 2.414867e-01 -2.808079e+00 146 137 130
-3.872492e-01 2.304080e-01 -2.808384e+00 190 176 167
4.403914e-01 2.167623e-01 -2.775593e+00 115 116 120
3.897021e-01 2.144775e-01 -2.785782e+00 184 193 199
3.897021e-01 2.144775e-01 -2.785782e+00 184 193 199
-6.266132e-02 1.915257e-01 -2.578603e+00 146 141 145
2.577518e-02 1.869338e-01 -2.576117e+00 169 165 163
2.236639e-01 1.964089e-01 -2.724529e+00 23 27 21
1.219595e-02 1.810318e-01 -2.580989e+00 151 150 146
4.521229e-01 1.947702e-01 -2.774233e+00 204 205 193
-5.719335e-01 2.169820e-01 -2.806964e+00 39 38 43
-2.977027e-03 1.722510e-01 -2.577520e+00 167 167 167
-1.187978e+00 2.757349e-01 -2.882830e+00 107 95 81
4.131267e-01 1.852412e-01 -2.782554e+00 70 83 99
-5.609654e-01 1.967719e-01 -2.804875e+00 39 41 47
3.236332e-02 1.564835e-01 -2.576494e+00 140 139 137
4.827302e-01 1.746306e-01 -2.772437e+00 188 182 170
4.648734e-01 1.731637e-01 -2.771444e+00 212 213 198
-9.488759e-01 2.198513e-01 -2.782334e+00 94 94 74
1.667447e-03 1.524992e-01 -2.574398e+00 131 132 130
-1.083813e+00 2.290352e-01 -2.868274e+00 91 79 78
-8.729944e-01 2.099197e-01 -2.826754e+00 25 27 40
-8.663755e-01 2.037556e-01 -2.824216e+00 32 37 53
1.340142e-02 1.475880e-01 -2.574394e+00 134 134 133
-1.186781e+00 2.289686e-01 -2.876051e+00 70 59 66
-4.230716e-01 1.590922e-01 -2.709626e+00 152 150 149
-5.749652e-01 1.669138e-01 -2.763938e+00 122 134 151
-4.812640e-01 1.439137e-01 -2.698980e+00 37 37 39
-1.576232e-01 1.155423e-01 -2.604801e+00 220 216 216
-4.417074e-01 1.208982e-01 -2.704151e+00 202 201 196
-4.415844e-01 1.208523e-01 -2.704262e+00 202 201 196
-7.340394e-01 1.254683e-01 -2.724031e+00 179 180 172
4.097994e-01 1.024399e-01 -2.760580e+00 216 169 151
4.097994e-01 1.024399e-01 -2.760580e+00 216 169 151
-7.437458e-01 1.164711e-01 -2.723441e+00 160 162 157
4.997648e-02 9.506730e-02 -2.566766e+00 173 172 168
1.372577e-01 5.609528e-02 -2.639096e+00 190 150 150
-3.760120e-01 4.823147e-02 -2.659773e+00 127 128 131
-1.365278e-02 5.039708e-02 -2.521486e+00 130 131 130
-7.507779e-01 2.673969e-02 -2.751104e+00 251 248 245
3.774840e-01 1.154384e-02 -2.752519e+00 146 150 111
-2.027195e-01 1.011357e-02 -2.759852e+00 168 163 153
7.053955e-01 5.384158e-03 -2.765438e+00 212 208 188
4.731917e-01 -1.127282e-02 -2.758016e+00 148 126 114
1.183588e-01 -4.078100e-03 -2.615591e+00 167 151 146
-5.744294e-01 -5.723807e-02 -2.781802e+00 16 17 21
4.780023e-01 -5.020913e-02 -2.754344e+00 159 154 112
6.238900e-01 -6.191942e-02 -2.746658e+00 163 146 129
6.206332e-01 -6.400601e-02 -2.744315e+00 168 152 133
7.355111e-01 -7.026458e-02 -2.662540e+00 191 174 175
7.355111e-01 -7.026458e-02 -2.662540e+00 191 174 175
5.614854e-01 -8.416899e-02 -2.753469e+00 183 165 151
5.569395e-01 -8.918049e-02 -2.742314e+00 155 126 122
6.490973e-01 -8.316010e-02 -2.689151e+00 170 140 136
7.383718e-01 -8.410355e-02 -2.614397e+00 244 249 253
4.467790e-01 -1.017845e-01 -2.745620e+00 37 40 46
4.519037e-01 -1.078262e-01 -2.747161e+00 44 47 29
5.339964e-01 -1.076470e-01 -2.734880e+00 181 158 137
7.697422e-01 -8.616889e-02 -2.566221e+00 181 189 184
4.061152e-01 -1.156810e-01 -2.753497e+00 75 78 90
4.061152e-01 -1.156810e-01 -2.753497e+00 75 78 90
6.896818e-01 -1.171314e-01 -2.659298e+00 155 151 147
2.617577e-01 -1.087212e-01 -2.657749e+00 190 187 180
7.018279e-01 -1.278010e-01 -2.604431e+00 244 253 249
1.642740e-01 -1.131604e-01 -2.616040e+00 191 208 228
6.296611e-01 -1.764009e-01 -2.735512e+00 164 157 151
9.009209e-01 -2.055518e-01 -2.707972e+00 61 60 69
6.407606e-01 -2.055026e-01 -2.738936e+00 155 147 136
-4.907658e-01 -2.213262e-01 -2.757144e+00 172 163 158
9.338795e-02 -1.561126e-01 -2.619353e+00 141 155 164
6.276238e-01 -2.136322e-01 -2.718685e+00 231 237 235
8.727151e-01 -2.769941e-01 -2.720640e+00 201 201 165
9.030834e-01 -2.679571e-01 -2.682878e+00 242 232 230
-1.335934e-01 -2.109763e-01 -2.646748e+00 189 188 186
-1.335934e-01 -2.109763e-01 -2.646748e+00 189 188 186
-1.404716e-01 -2.152698e-01 -2.644913e+00 186 187 189
-1.283385e-01 -2.156572e-01 -2.646660e+00 178 176 174
-1.283385e-01 -2.156572e-01 -2.646660e+00 178 176 174
-4.524868e-01 -2.618872e-01 -2.708576e+00 173 171 154
7.472429e-01 -2.813461e-01 -2.730218e+00 179 169 162
8.819974e-01 -2.943762e-01 -2.708544e+00 140 141 154
-2.846068e-01 -2.662314e-01 -2.727067e+00 40 50 60
8.802198e-01 -3.002771e-01 -2.700889e+00 213 224 226
-1.802715e-01 -2.278839e-01 -2.630815e+00 97 101 99
8.869505e-01 -2.946947e-01 -2.673010e+00 147 153 167
8.844641e-01 -2.954266e-01 -2.666958e+00 220 227 232
7.569197e-01 -3.073329e-01 -2.730557e+00 214 203 207
-4.218274e-01 -2.833193e-01 -2.703434e+00 152 151 149
8.840154e-01 -3.005477e-01 -2.635035e+00 113 91 106
-3.664834e-01 -2.977907e-01 -2.708743e+00 144 144 148
6.037935e-01 -3.029142e-01 -2.706340e+00 190 173 176
6.026967e-01 -3.220712e-01 -2.744666e+00 184 174 162
6.026967e-01 -3.220712e-01 -2.744666e+00 184 174 162
-3.997693e-01 -3.055490e-01 -2.705367e+00 165 160 155
6.915108e-01 -3.260188e-01 -2.716472e+00 203 199 198
9.229002e-01 -3.263114e-01 -2.647954e+00 232 244 236
6.741722e-01 -3.424344e-01 -2.693940e+00 207 201 215
9.002348e-01 -3.513836e-01 -2.644666e+00 171 159 151
6.200140e-01 -3.579714e-01 -2.738460e+00 184 177 165
6.200140e-01 -3.579714e-01 -2.738460e+00 184 177 165
7.033157e-01 -3.234259e-01 -2.632826e+00 193 187 181
7.043531e-01 -3.228848e-01 -2.626053e+00 191 186 186
2.494751e-01 -3.150988e-01 -2.693904e+00 147 157 164
6.752039e-01 -3.416830e-01 -2.657411e+00 145 144 163
-1.342437e-01 -3.011064e-01 -2.639381e+00 72 71 85
1.930248e-01 -3.366485e-01 -2.723444e+00 180 172 171
6.862694e-01 -3.370701e-01 -2.624727e+00 210 205 220
2.033409e-01 -3.448946e-01 -2.703147e+00 170 189 207
-3.229698e-01 -3.285678e-01 -2.622380e+00 42 48 73
-2.651442e-01 -3.326240e-01 -2.631364e+00 145 146 150
-4.975305e-02 -3.624211e-01 -2.718371e+00 25 27 18
-1.482045e-01 -3.184838e-01 -2.617862e+00 16 29 36
6.848945e-01 -3.548603e-01 -2.590798e+00 184 196 208
-1.598053e-01 -3.250832e-01 -2.611351e+00 197 185 195
-1.120101e-01 -3.747926e-01 -2.711860e+00 33 39 29
1.128099e-01 -3.787958e-01 -2.716367e+00 104 103 111
-1.695784e-01 -3.587249e-01 -2.628149e+00 87 93 122
-1.675686e-01 -3.608242e-01 -2.628742e+00 74 93 120
-3.788703e-01 -3.740751e-01 -2.601601e+00 35 37 57
1.917566e-01 -3.992766e-01 -2.704980e+00 221 239 240
-1.688416e-01 -3.679749e-01 -2.625515e+00 23 20 45
6.890986e-01 -4.179613e-01 -2.578824e+00 155 168 186
2.065271e-01 -4.110452e-01 -2.657300e+00 54 51 58
-5.032683e-01 -4.510284e-01 -2.582280e+00 116 135 119
1.508620e-01 -4.348341e-01 -2.661374e+00 20 27 20
4.411290e-01 -4.799017e-01 -2.696462e+00 185 175 173
-3.705006e-01 -4.793666e-01 -2.593854e+00 32 31 52
4.303674e-01 -5.069884e-01 -2.669846e+00 183 179 183
5.263828e-02 -5.041819e-01 -2.696524e+00 40 45 49
-5.340845e-02 -5.047935e-01 -2.686949e+00 41 39 43
-3.033099e-01 -4.696958e-01 -2.586703e+00 41 39 50
-4.152584e-02 -5.123492e-01 -2.693809e+00 15 16 20
4.426022e-01 -5.012967e-01 -2.642112e+00 147 137 136
1.692619e-01 -4.964277e-01 -2.670353e+00 79 66 30
-3.009771e-01 -4.794200e-01 -2.593661e+00 141 142 136
2.219105e-01 -5.004533e-01 -2.670300e+00 23 28 24
4.145884e-01 -5.204634e-01 -2.663697e+00 62 61 90
4.456265e-01 -4.973151e-01 -2.621799e+00 162 139 142
-3.222974e-01 -4.903343e-01 -2.594294e+00 191 192 187
2.349442e-01 -5.086313e-01 -2.671341e+00 108 116 102
-2.716410e-01 -4.789793e-01 -2.587852e+00 203 198 208
4.279061e-02 -5.178496e-01 -2.683120e+00 131 127 124
-2.921963e-01 -4.982795e-01 -2.592751e+00 36 32 63
-2.921963e-01 -4.982795e-01 -2.592751e+00 36 32 63
7.913518e-02 -5.153183e-01 -2.663250e+00 127 128 130
3.986013e-02 -5.223700e-01 -2.671546e+00 172 171 176
-3.149977e-01 -5.059106e-01 -2.586332e+00 50 46 62
3.812566e-02 -5.263548e-01 -2.658780e+00 25 31 28
3.693095e-01 -5.516110e-01 -2.659843e+00 187 174 154
-3.035511e-01 -5.150875e-01 -2.580123e+00 189 188 197
-3.035511e-01 -5.150875e-01 -2.580123e+00 189 188 197
2.196905e-02 -5.502281e-01 -2.663823e+00 134 131 135
-3.782481e-01 -5.341525e-01 -2.565691e+00 172 141 148
1.080181e-01 -5.755938e-01 -2.687553e+00 170 164 162
6.022736e-03 -5.727400e-01 -2.669141e+00 31 31 33
7.995185e-03 -5.751801e-01 -2.668053e+00 189 184 185
1.592262e-01 6.692735e-01 -2.807544e+00 222 196 184
1.809127e-02 6.575340e-01 -2.825952e+00 159 141 137
1.708137e-01 6.496739e-01 -2.820614e+00 233 230 236
1.708137e-01 6.496739e-01 -2.820614e+00 233 230 236
1.586114e-01 6.640645e-01 -2.853134e+00 224 199 172
5.751291e-01 6.510153e-01 -2.735776e+00 181 182 174
1.058778e-01 6.596416e-01 -2.858174e+00 184 179 168
1.695739e-01 6.471024e-01 -2.832260e+00 238 235 243
1.132380e-01 6.516816e-01 -2.849718e+00 193 191 181
1.785905e-01 6.481243e-01 -2.844710e+00 245 240 248
5.095441e-01 6.327145e-01 -2.739284e+00 249 247 252
1.727494e-01 6.383625e-01 -2.841721e+00 76 71 55
5.973084e-01 6.310347e-01 -2.734704e+00 201 207 209
1.427197e-01 6.129670e-01 -2.830136e+00 177 186 191
1.547485e-01 6.094369e-01 -2.830242e+00 163 173 184
1.208842e-01 6.001517e-01 -2.840993e+00 191 185 180
-4.140857e-02 6.023547e-01 -2.858961e+00 170 171 168
-7.124628e-02 5.998764e-01 -2.856232e+00 163 158 166
-6.711392e-02 5.943328e-01 -2.848347e+00 62 65 74
-1.365977e-01 5.778453e-01 -2.849243e+00 37 41 52
-1.510079e-01 5.737220e-01 -2.842057e+00 29 33 45
-1.150017e-01 5.721288e-01 -2.846043e+00 76 80 89
-1.150017e-01 5.721288e-01 -2.846043e+00 76 80 89
-9.685642e-02 5.650246e-01 -2.848278e+00 183 178 178
2.311518e-01 5.451340e-01 -2.831583e+00 176 172 169
1.772968e-02 5.394297e-01 -2.828975e+00 177 166 167
-4.228903e-01 5.405892e-01 -2.707106e+00 219 227 230
-5.062002e-01 5.436104e-01 -2.696898e+00 250 253 237
-4.304952e-01 5.215575e-01 -2.698291e+00 95 90 84
-7.274173e-02 5.242556e-01 -2.840293e+00 50 54 64
2.393037e-01 5.108039e-01 -2.821017e+00 172 165 162
3.622974e-02 4.874277e-01 -2.779709e+00 156 152 151
-4.014346e-01 5.004750e-01 -2.693636e+00 147 133 125
-8.680753e-02 5.034065e-01 -2.832243e+00 47 57 67
-1.538239e-01 5.063655e-01 -2.832290e+00 36 44 55
-6.772156e-02 4.949439e-01 -2.833077e+00 59 69 83
-5.519526e-01 5.065034e-01 -2.691099e+00 94 91 93
-5.519526e-01 5.065034e-01 -2.691099e+00 94 91 93
3.008421e-01 4.578655e-01 -2.789509e+00 236 238 237
-5.536894e-01 4.871435e-01 -2.687733e+00 140 132 114
-5.536894e-01 4.871435e-01 -2.687733e+00 140 132 114
5.572431e-01 4.680544e-01 -2.760755e+00 110 103 100
5.572431e-01 4.680544e-01 -2.760755e+00 110 103 100
-2.816239e-01 4.507548e-01 -2.743676e+00 21 24 16
-5.546367e-01 4.725191e-01 -2.687234e+00 90 80 78
-1.721216e-01 4.462522e-01 -2.802024e+00 145 135 126
5.373653e-01 4.562411e-01 -2.779835e+00 182 171 176
-1.977918e-01 4.434613e-01 -2.806023e+00 162 166 170
-2.166817e-01 4.429478e-01 -2.807084e+00 161 133 143
9.611581e-02 4.146265e-01 -2.769345e+00 174 173 171
-2.231125e-01 4.306351e-01 -2.805855e+00 174 173 189
1.236876e-01 3.943702e-01 -2.763680e+00 169 168 166
-6.167258e-01 4.555532e-01 -2.720804e+00 116 123 129
3.355964e-01 4.072449e-01 -2.797189e+00 224 223 223
6.011269e-02 3.838977e-01 -2.758526e+00 163 163 159
-3.421353e-01 4.187852e-01 -2.833069e+00 28 29 29
-3.052592e-01 4.128353e-01 -2.837552e+00 142 133 116
-3.301838e-01 4.137589e-01 -2.835758e+00 73 67 61
-1.844353e-01 3.907031e-01 -2.797930e+00 174 164 165
-1.844353e-01 3.907031e-01 -2.797930e+00 174 164 165
2.378672e-01 3.842867e-01 -2.812376e+00 153 142 144
2.378672e-01 3.842867e-01 -2.812376e+00 153 142 144
1.141066e-01 3.659830e-01 -2.758309e+00 176 177 172
-2.930171e-01 4.058249e-01 -2.835541e+00 72 68 58
-5.215058e-01 4.037718e-01 -2.708715e+00 61 56 75
-5.215058e-01 4.037718e-01 -2.708715e+00 61 56 75
-5.248093e-01 4.013543e-01 -2.709442e+00 47 54 76
-5.248093e-01 4.013543e-01 -2.709442e+00 47 54 76
3.101600e-01 3.629377e-01 -2.772643e+00 205 214 224
1.182909e-01 3.389815e-01 -2.753774e+00 35 35 35
1.182909e-01 3.389815e-01 -2.753774e+00 35 35 35
6.323205e-01 3.667947e-01 -2.737293e+00 252 253 250
-1.024748e-01 3.380598e-01 -2.780573e+00 173 173 176
-4.818103e-01 3.704321e-01 -2.806600e+00 22 23 29
1.175004e-01 3.120487e-01 -2.749236e+00 173 176 175
4.657422e-01 3.365804e-01 -2.796849e+00 195 185 187
4.517383e-01 3.292227e-01 -2.794847e+00 116 112 104
2.196826e-01 3.117227e-01 -2.791174e+00 125 121 105
-5.594864e-02 3.063962e-01 -2.767440e+00 168 130 141
-4.591601e-01 3.430232e-01 -2.827938e+00 40 36 41
-2.803177e-01 3.233932e-01 -2.821989e+00 156 146 144
2.978870e-01 2.973002e-01 -2.773876e+00 101 127 155
3.584391e-01 2.962069e-01 -2.780232e+00 172 168 161
1.758324e-01 2.755878e-01 -2.782109e+00 100 95 66
-4.342153e-01 3.002061e-01 -2.817869e+00 117 104 88
3.728890e-01 2.635354e-01 -2.793416e+00 188 184 177
-4.641959e-01 2.882203e-01 -2.818559e+00 174 156 152
3.820879e-01 2.495868e-01 -2.789663e+00 185 182 170
2.851673e-01 2.396305e-01 -2.784516e+00 117 121 97
1.949365e-01 2.353374e-01 -2.775268e+00 24 33 32
2.774613e-01 2.315709e-01 -2.779651e+00 32 39 28
2.215769e-01 2.262867e-01 -2.778315e+00 91 98 79
-1.226141e-02 1.971000e-01 -2.580704e+00 136 136 134
-5.266887e-01 2.324731e-01 -2.809423e+00 41 41 42
-5.536980e-01 2.113587e-01 -2.803184e+00 37 42 47
-3.387584e-02 1.662365e-01 -2.575128e+00 153 154 156
-1.189762e+00 2.485095e-01 -2.880847e+00 51 50 46
-6.208382e-01 1.928475e-01 -2.766790e+00 58 58 68
-6.857303e-02 1.552418e-01 -2.571365e+00 139 139 140
-1.243612e+00 2.400587e-01 -2.886030e+00 56 46 58
-5.920818e-01 1.818399e-01 -2.767911e+00 43 50 68
-8.660296e-01 1.924298e-01 -2.822484e+00 163 175 179
-4.850517e-02 1.414389e-01 -2.570351e+00 134 133 133
-4.182609e-01 1.557097e-01 -2.708143e+00 150 146 147
-2.706468e-01 1.480074e-01 -2.788845e+00 44 43 48
-5.817693e-01 1.630103e-01 -2.760978e+00 57 69 90
-1.148923e+00 2.023973e-01 -2.867715e+00 73 72 67
-8.698115e-01 1.674667e-01 -2.819699e+00 124 116 94
4.128795e-03 1.253812e-01 -2.568550e+00 136 136 138
5.140903e-01 1.320573e-01 -2.747046e+00 151 105 100
-8.738234e-01 1.631998e-01 -2.814562e+00 189 193 204
-4.471963e-01 1.283409e-01 -2.706294e+00 195 193 195
-4.195999e-01 1.189841e-01 -2.703239e+00 152 147 146
-2.000678e-02 1.039290e-01 -2.565800e+00 133 133 133
-3.373060e-01 9.218813e-02 -2.664118e+00 145 144 149
-7.486134e-01 1.045108e-01 -2.720024e+00 74 71 81
-3.421132e-01 8.673888e-02 -2.662774e+00 133 134 138
-7.810958e-01 9.590105e-02 -2.724696e+00 167 159 178
7.436125e-01 6.733047e-02 -2.722490e+00 203 201 206
7.554759e-01 5.654593e-02 -2.721488e+00 135 133 138
-2.613520e-01 4.696967e-02 -2.762507e+00 85 85 96
-3.813744e-02 6.018859e-02 -2.521839e+00 125 125 123
-3.478772e-02 4.920696e-02 -2.502282e+00 99 113 121
5.239609e-01 2.766837e-02 -2.739047e+00 64 55 23
-4.417665e-02 4.841388e-02 -2.501368e+00 61 69 80
-4.340183e-02 4.554332e-02 -2.500853e+00 65 71 86
-1.982425e-02 4.286341e-02 -2.501177e+00 161 168 175
4.765601e-01 1.079211e-02 -2.757878e+00 156 144 124
7.509316e-01 1.987925e-02 -2.645005e+00 248 248 246
3.329681e-01 6.334676e-03 -2.712255e+00 18 21 8
-2.287736e-01 -9.355972e-05 -2.758343e+00 189 186 179
7.042882e-01 -8.415424e-04 -2.755244e+00 236 241 223
7.250162e-01 5.793213e-03 -2.681054e+00 252 251 248
1.255690e-01 1.021677e-02 -2.627006e+00 166 126 116
1.150365e-01 1.739151e-03 -2.616187e+00 91 81 79
2.923877e-01 -2.446118e-02 -2.756879e+00 26 29 36
-3.788400e-01 -4.454291e-02 -2.720010e+00 156 161 170
-3.487499e-01 -5.295223e-02 -2.717468e+00 164 169 172
-2.140227e-01 -6.122882e-02 -2.751248e+00 186 183 178
5.527250e-01 -7.154858e-02 -2.757660e+00 152 147 137
6.788220e-01 -6.714189e-02 -2.688050e+00 178 149 145
7.484146e-01 -7.297752e-02 -2.618732e+00 247 250 250
6.022987e-01 -9.762940e-02 -2.750587e+00 94 85 79
6.200186e-01 -1.120411e-01 -2.750688e+00 88 79 83
6.082397e-01 -1.149306e-01 -2.750378e+00 159 149 139
6.006092e-01 -1.147802e-01 -2.749527e+00 158 153 124
-6.248625e-01 -1.348478e-01 -2.777454e+00 34 33 30
-5.371645e-02 -1.049007e-01 -2.708182e+00 166 165 162
-3.617575e-01 -1.252589e-01 -2.737066e+00 47 51 60
6.474809e-01 -1.399038e-01 -2.752198e+00 180 174 148
-2.039581e-01 -1.337706e-01 -2.745868e+00 182 178 169
-4.095489e-01 -1.491771e-01 -2.751249e+00 161 136 116
6.419076e-01 -1.550802e-01 -2.740114e+00 225 222 213
7.037034e-01 -1.254158e-01 -2.605280e+00 235 246 248
-7.794787e-02 -1.427959e-01 -2.703392e+00 171 176 179
9.926900e-01 -1.950215e-01 -2.736196e+00 196 187 175
9.926900e-01 -1.950215e-01 -2.736196e+00 196 187 175
2.608969e-01 -1.379258e-01 -2.654908e+00 192 186 186
-3.938511e-01 -1.851481e-01 -2.722296e+00 27 30 36
-9.520284e-02 -1.714533e-01 -2.699053e+00 41 49 59
6.120988e-01 -2.081466e-01 -2.735685e+00 54 58 59
-5.141978e-01 -2.213222e-01 -2.752039e+00 79 79 84
-4.927367e-01 -2.238475e-01 -2.754675e+00 57 50 55
1.270922e-01 -1.535719e-01 -2.586202e+00 105 111 122
-2.925012e-01 -2.152417e-01 -2.732284e+00 185 181 180
-2.873850e-01 -2.189483e-01 -2.734273e+00 178 174 171
-3.392465e-01 -2.196935e-01 -2.717919e+00 152 149 156
2.347448e-01 -1.852544e-01 -2.645336e+00 155 151 140
-4.395693e-01 -2.461065e-01 -2.713031e+00 170 175 156
9.079430e-01 -2.553390e-01 -2.649941e+00 231 232 221
-2.936076e-01 -2.452298e-01 -2.725510e+00 205 203 211
-4.461633e-01 -2.595941e-01 -2.710202e+00 157 153 152
3.154559e-01 -2.472176e-01 -2.733216e+00 91 89 86
8.925698e-01 -2.850987e-01 -2.680662e+00 252 252 251
-2.652297e-01 -2.767783e-01 -2.694374e+00 183 177 180
8.803090e-01 -3.000714e-01 -2.636887e+00 232 233 226
8.803090e-01 -3.000714e-01 -2.636887e+00 232 233 226
9.055002e-01 -3.284157e-01 -2.652835e+00 81 88 94
-4.091197e-01 -3.166759e-01 -2.708222e+00 122 118 117
7.176494e-01 -3.186889e-01 -2.670926e+00 209 208 211
5.041246e-01 -3.303488e-01 -2.728479e+00 158 160 155
5.041246e-01 -3.303488e-01 -2.728479e+00 158 160 155
6.794115e-01 -3.417616e-01 -2.672157e+00 195 191 185
-2.067159e-01 -2.835583e-01 -2.611222e+00 80 33 53
8.974061e-01 -3.536938e-01 -2.624078e+00 145 158 193
6.658574e-01 -3.436201e-01 -2.664853e+00 200 193 185
5.367564e-02 -2.956650e-01 -2.650581e+00 151 147 144
6.754668e-01 -3.391462e-01 -2.625209e+00 201 196 196
-2.921140e-01 -3.426359e-01 -2.629954e+00 146 147 151
-1.555889e-01 -3.290040e-01 -2.619848e+00 77 39 74
-1.959145e-01 -3.392918e-01 -2.629673e+00 145 158 149
-1.598444e-01 -3.276679e-01 -2.609697e+00 66 54 73
-1.523327e-01 -3.293977e-01 -2.607050e+00 59 86 123
6.593132e-01 -4.517414e-01 -2.725567e+00 181 178 169
-2.913529e-01 -3.721962e-01 -2.612631e+00 33 36 41
-1.723666e-01 -3.672029e-01 -2.625147e+00 37 36 67
-3.971127e-01 -3.975906e-01 -2.597432e+00 37 44 71
4.968663e-01 -4.816120e-01 -2.734141e+00 166 164 145
2.092841e-01 -4.113894e-01 -2.656061e+00 172 181 182
-3.462596e-01 -4.177517e-01 -2.600691e+00 179 175 176
-3.492114e-01 -4.540505e-01 -2.603181e+00 148 146 147
-4.904963e-01 -4.927055e-01 -2.584593e+00 203 201 204
4.355332e-01 -5.066005e-01 -2.667098e+00 206 202 194
1.650937e-01 -4.864086e-01 -2.668768e+00 32 35 19
5.497287e-02 -5.003306e-01 -2.684353e+00 18 23 29
-7.792196e-02 -4.706747e-01 -2.619588e+00 49 44 48
1.759263e-01 -4.999994e-01 -2.668768e+00 43 38 22
2.244140e-01 -5.037437e-01 -2.670694e+00 104 114 86
2.244140e-01 -5.037437e-01 -2.670694e+00 104 114 86
-3.036936e-01 -4.873219e-01 -2.595646e+00 192 192 195
3.304030e-02 -5.272142e-01 -2.688942e+00 178 180 160
4.311270e-02 -5.199676e-01 -2.679035e+00 163 164 167
-3.336010e-01 -4.996257e-01 -2.589277e+00 145 150 160
7.290208e-01 -6.579618e-01 -2.767315e+00 148 149 151
4.509273e-01 -5.010866e-01 -2.605194e+00 93 83 85
4.509273e-01 -5.010866e-01 -2.605194e+00 93 83 85
5.320724e-01 -5.310926e-01 -2.614351e+00 23 35 34
2.919039e-01 -5.719889e-01 -2.693353e+00 115 123 95
3.635924e-01 -5.552963e-01 -2.659828e+00 165 151 137
4.255789e-01 -5.242694e-01 -2.603751e+00 40 45 58
-3.194742e-01 -5.198921e-01 -2.571220e+00 182 194 197
1.650476e-02 -5.544152e-01 -2.671888e+00 159 156 146
-3.162455e-01 -5.864910e-01 -2.655463e+00 82 80 81
1.591405e-01 -5.767228e-01 -2.690683e+00 176 150 145
1.135486e-01 -5.863650e-01 -2.687012e+00 158 158 161
-2.444212e-02 6.722921e-01 -2.818501e+00 210 186 180
3.259709e-01 6.219594e-01 -2.708781e+00 101 85 93
2.862183e-02 6.703016e-01 -2.842578e+00 51 50 55
2.801127e-01 6.735251e-01 -2.842796e+00 45 47 45
-2.806406e-01 6.299223e-01 -2.719565e+00 27 40 49
2.687104e-01 6.607260e-01 -2.844680e+00 53 53 61
3.060020e-01 6.604660e-01 -2.853429e+00 149 150 110
3.062864e-01 6.513600e-01 -2.840114e+00 47 47 47
2.819359e-01 6.409605e-01 -2.833677e+00 200 54 93
1.195472e-01 6.035916e-01 -2.823634e+00 189 139 148
1.134964e-01 6.074599e-01 -2.842250e+00 168 160 152
6.513552e-01 6.056966e-01 -2.711362e+00 248 245 242
-6.116383e-02 6.092486e-01 -2.858762e+00 58 64 67
-4.290553e-02 6.074533e-01 -2.858072e+00 86 85 94
-3.768983e-01 5.711244e-01 -2.709612e+00 64 95 98
5.576538e-01 5.690549e-01 -2.728143e+00 225 217 212
2.405232e-01 5.679666e-01 -2.840709e+00 165 164 166
2.826027e-01 5.415017e-01 -2.780896e+00 90 91 100
5.727311e-03 5.536152e-01 -2.834893e+00 171 168 156
1.904984e-01 5.526968e-01 -2.835897e+00 67 68 73
-8.059667e-02 5.553857e-01 -2.829430e+00 32 44 61
2.700352e-01 5.287923e-01 -2.779386e+00 123 123 131
-9.447613e-02 5.568911e-01 -2.846013e+00 47 55 60
2.279593e-01 5.438355e-01 -2.834250e+00 162 160 155
-1.018256e-01 5.447095e-01 -2.836456e+00 53 61 74
2.790416e-01 5.155578e-01 -2.774927e+00 205 200 197
-1.777431e-01 5.494261e-01 -2.842528e+00 33 38 42
-5.166439e-01 5.456985e-01 -2.699161e+00 136 135 142
-5.166439e-01 5.456985e-01 -2.699161e+00 136 135 142
-3.834199e-01 5.251549e-01 -2.815330e+00 14 17 26
-5.248102e-01 5.091247e-01 -2.690782e+00 37 28 40
-5.248102e-01 5.091247e-01 -2.690782e+00 37 28 40
-5.206907e-01 5.022462e-01 -2.688434e+00 85 79 73
-3.779565e-01 5.161269e-01 -2.818335e+00 23 26 35
-4.077936e-01 5.195900e-01 -2.820364e+00 28 31 36
-4.087760e-01 5.202989e-01 -2.822719e+00 28 31 36
-9.621117e-02 4.867661e-01 -2.831024e+00 151 148 157
1.869967e-01 4.684748e-01 -2.806440e+00 193 178 159
1.869967e-01 4.684748e-01 -2.806440e+00 193 178 159
-3.778221e-01 5.015715e-01 -2.817851e+00 14 18 27
7.233931e-01 4.882227e-01 -2.712226e+00 142 123 118
5.313560e-01 4.803237e-01 -2.797351e+00 64 68 79
-3.060879e-01 4.442936e-01 -2.748299e+00 21 24 17
1.687743e-01 4.250695e-01 -2.777013e+00 168 164 161
2.472462e-01 4.380381e-01 -2.825881e+00 59 52 42
-1.733315e-02 4.339593e-01 -2.821315e+00 143 133 123
2.617193e-01 4.243266e-01 -2.823199e+00 154 156 150
1.662461e-01 3.963794e-01 -2.766968e+00 181 180 175
4.778968e-01 4.211856e-01 -2.781716e+00 23 23 31
1.619907e-01 3.953099e-01 -2.767708e+00 151 148 143
-5.063044e-01 4.217324e-01 -2.715165e+00 51 53 74
4.514368e-01 3.982762e-01 -2.766608e+00 30 32 35
-5.987448e-01 4.348345e-01 -2.715575e+00 192 198 193
1.917350e-01 3.783920e-01 -2.767137e+00 120 118 126
-2.063281e-01 3.979806e-01 -2.799242e+00 163 174 178
4.993068e-01 4.069348e-01 -2.802303e+00 132 125 106
-5.154893e-01 4.099887e-01 -2.709509e+00 68 72 85
4.796778e-01 3.906616e-01 -2.795964e+00 175 171 174
4.409798e-05 3.662889e-01 -2.806123e+00 54 59 70
3.039183e-01 3.514181e-01 -2.765566e+00 203 213 215
-3.090172e-01 3.809744e-01 -2.830356e+00 41 42 47
4.804994e-01 3.706669e-01 -2.804872e+00 41 53 40
3.776615e-02 3.424107e-01 -2.805810e+00 144 130 114
-4.544632e-01 3.750738e-01 -2.823067e+00 15 20 23
9.514708e-02 3.234379e-01 -2.749300e+00 159 161 166
-4.540372e-01 3.511362e-01 -2.827959e+00 34 30 31
-2.684664e-02 3.090502e-01 -2.792708e+00 55 71 68
-2.841138e-01 3.219701e-01 -2.818002e+00 70 65 65
4.373535e-01 3.025968e-01 -2.791898e+00 190 181 167
-3.304805e-01 3.085877e-01 -2.818072e+00 59 49 58
-2.644137e-01 2.957282e-01 -2.817430e+00 172 156 156
2.684069e-01 2.788965e-01 -2.782109e+00 185 179 173
-4.900447e-01 3.126337e-01 -2.824368e+00 29 28 33
2.009068e-01 2.392363e-01 -2.774180e+00 40 46 40
-4.146522e-01 2.598666e-01 -2.812835e+00 187 171 158
-1.034471e-01 2.072942e-01 -2.563233e+00 147 150 150
-2.947329e-01 2.417278e-01 -2.806332e+00 52 51 52
-2.947329e-01 2.417278e-01 -2.806332e+00 52 51 52
-6.513314e-02 1.928182e-01 -2.579348e+00 151 151 153
-4.713457e-01 2.331703e-01 -2.804501e+00 75 78 71
-6.007302e-02 1.908882e-01 -2.578984e+00 158 156 159
-4.190946e-01 2.214577e-01 -2.806348e+00 36 31 37
-1.104139e+00 2.876835e-01 -2.877314e+00 67 66 62
-1.191796e+00 2.868170e-01 -2.885765e+00 139 123 98
-5.759494e-01 2.221594e-01 -2.808084e+00 24 25 29
-1.196126e-01 1.761154e-01 -2.570884e+00 126 133 143
-1.194259e-01 1.760780e-01 -2.570750e+00 126 133 143
-8.956592e-01 2.472271e-01 -2.789546e+00 57 61 57
4.690656e-01 1.948129e-01 -2.773309e+00 129 121 104
-4.053416e-01 2.024733e-01 -2.800732e+00 46 45 45
-6.879032e-02 1.720441e-01 -2.574457e+00 147 149 151
-9.351468e-01 2.299900e-01 -2.780938e+00 48 49 36
-7.388599e-02 1.605728e-01 -2.572355e+00 138 136 139
-1.113761e+00 2.436681e-01 -2.872718e+00 89 80 66
4.550143e-01 1.729709e-01 -2.768200e+00 79 80 81
3.975409e-01 1.625410e-01 -2.776831e+00 51 53 49
-5.774975e-01 1.800296e-01 -2.768982e+00 20 24 31
-6.123001e-01 1.812245e-01 -2.763123e+00 39 44 56
-4.364939e-01 1.674999e-01 -2.712445e+00 164 160 158
-8.655396e-01 1.924687e-01 -2.822007e+00 164 177 181
-3.418906e-02 1.381099e-01 -2.570103e+00 167 168 171
-8.643213e-01 1.830472e-01 -2.827597e+00 52 53 75
-3.989495e-01 1.438530e-01 -2.712205e+00 154 150 147
-5.610614e-02 1.198892e-01 -2.565270e+00 160 163 164
-6.025980e-01 1.329552e-01 -2.793944e+00 124 118 107
3.232373e-01 1.063114e-01 -2.764585e+00 138 139 100
-4.222928e-01 1.130150e-01 -2.702411e+00 155 151 149
5.447042e-02 1.040459e-01 -2.568290e+00 171 170 166
-7.036880e-01 1.158692e-01 -2.732194e+00 93 92 97
4.832401e-01 9.604881e-02 -2.774437e+00 96 97 94
-1.042025e+00 1.151445e-01 -2.823263e+00 36 33 37
-7.861615e-01 1.037427e-01 -2.728968e+00 145 135 150
-3.813964e-01 9.127975e-02 -2.653459e+00 178 178 177
-3.840742e-01 8.860519e-02 -2.652473e+00 187 185 180
7.496573e-01 5.832536e-02 -2.723169e+00 195 192 194
-7.155371e-01 6.234346e-02 -2.729978e+00 41 41 45
-2.268781e-01 2.722000e-02 -2.763283e+00 171 169 160
3.918847e-02 3.674324e-02 -2.593728e+00 52 69 99
-4.531292e-01 2.419455e-02 -2.680959e+00 49 37 54
4.808678e-01 2.975676e-03 -2.753604e+00 100 98 73
7.533691e-01 1.331293e-02 -2.644660e+00 242 244 235
7.533691e-01 1.331293e-02 -2.644660e+00 242 244 235
7.029446e-01 -3.367743e-03 -2.747407e+00 67 72 74
6.938784e-01 -1.419367e-02 -2.725676e+00 217 226 212
6.934388e-01 -1.403744e-02 -2.716355e+00 181 168 162
5.206563e-01 -1.685659e-02 -2.729741e+00 189 163 150
-4.166165e-01 -2.328820e-02 -2.677757e+00 36 20 28
6.560614e-01 -4.718523e-02 -2.708097e+00 157 137 130
8.184617e-01 -5.238795e-02 -2.652262e+00 249 251 249
4.363324e-01 -7.245149e-02 -2.759595e+00 118 113 114
7.316785e-01 -7.533652e-02 -2.660471e+00 153 155 166
6.050005e-01 -1.124263e-01 -2.751785e+00 64 59 56
-6.182288e-01 -1.428643e-01 -2.775308e+00 133 123 109
6.441894e-01 -1.433030e-01 -2.744489e+00 220 218 191
1.204455e-01 -1.037618e-01 -2.623485e+00 148 149 155
3.721836e-01 -1.434515e-01 -2.746572e+00 150 157 153
6.657300e-01 -1.446553e-01 -2.692623e+00 142 112 129
6.936039e-01 -1.324120e-01 -2.624098e+00 195 189 187
1.617957e-01 -1.111661e-01 -2.615405e+00 26 42 56
1.377124e-01 -1.395756e-01 -2.617961e+00 150 151 153
6.174045e-01 -2.205605e-01 -2.732128e+00 174 167 152
6.925826e-01 -1.925091e-01 -2.604026e+00 201 201 210
9.222574e-01 -2.397946e-01 -2.689750e+00 77 72 89
9.192613e-01 -3.037931e-01 -2.645293e+00 91 96 96
-1.933271e-01 -2.554683e-01 -2.638791e+00 170 167 169
6.337797e-02 -2.783235e-01 -2.653984e+00 191 186 183
9.058032e-01 -3.481045e-01 -2.633967e+00 247 249 254
-1.132385e-01 -2.994904e-01 -2.663287e+00 63 66 73
-1.220367e-01 -3.091888e-01 -2.630227e+00 84 80 103
-1.730701e-01 -3.152032e-01 -2.612294e+00 132 52 103
-7.150252e-02 -3.588536e-01 -2.711413e+00 100 104 71
3.336303e-01 -3.191550e-01 -2.625046e+00 32 40 49
-1.620102e-01 -3.248601e-01 -2.609644e+00 88 73 108
-1.620102e-01 -3.248601e-01 -2.609644e+00 88 73 108
-3.915521e-01 -3.515986e-01 -2.601607e+00 60 68 71
-3.998501e-01 -3.912683e-01 -2.600787e+00 45 66 46
-4.270077e-01 -3.945640e-01 -2.593673e+00 183 182 169
-1.084595e-01 -4.404713e-01 -2.680504e+00 41 36 40
2.334536e-01 -4.268177e-01 -2.664530e+00 86 71 79
2.374005e-01 -4.274155e-01 -2.659385e+00 113 132 142
1.408340e-01 -4.362821e-01 -2.657608e+00 95 103 80
3.996579e-03 -4.677942e-01 -2.702721e+00 19 22 29
2.332251e-01 -4.312514e-01 -2.638534e+00 174 187 194
-9.127932e-02 -4.610916e-01 -2.657545e+00 46 44 47
-5.580838e-02 -4.968434e-01 -2.693047e+00 18 19 24
-2.610743e-01 -4.658659e-01 -2.600033e+00 64 65 70
-4.626975e-01 -4.907501e-01 -2.574145e+00 36 35 44
5.210422e-01 -5.178024e-01 -2.612662e+00 36 36 62
1.408187e-01 -5.434569e-01 -2.699034e+00 175 170 162
-9.367543e-02 -4.560792e-01 -2.558662e+00 66 60 67
5.337858e-02 -5.336637e-01 -2.655813e+00 140 140 140
5.337858e-02 -5.336637e-01 -2.655813e+00 140 140 140
3.718235e-01 -5.508682e-01 -2.650061e+00 188 164 165
5.241593e-02 -5.507550e-01 -2.659645e+00 111 115 117
3.570063e-01 -5.710741e-01 -2.662808e+00 176 171 158
9.271223e-02 -5.805186e-01 -2.684155e+00 152 149 144
5.982046e-02 -5.599894e-01 -2.655589e+00 164 163 161
1.319770e-01 -5.879266e-01 -2.686484e+00 226 231 211
6.262230e-01 6.840083e-01 -2.763737e+00 178 179 170
1.661729e-01 6.510212e-01 -2.827218e+00 149 148 156
1.947287e-01 6.431644e-01 -2.811964e+00 140 110 102
1.621880e-01 6.572350e-01 -2.847517e+00 250 245 245
1.739634e-01 6.472371e-01 -2.828065e+00 134 130 143
1.575534e-01 6.462156e-01 -2.837448e+00 89 74 52
2.546344e-01 6.456669e-01 -2.856285e+00 184 175 173
1.721545e-01 6.290581e-01 -2.836421e+00 185 177 163
6.559582e-01 6.292940e-01 -2.716087e+00 87 87 116
1.620646e-01 6.173338e-01 -2.833627e+00 171 180 186
3.093309e-01 6.212772e-01 -2.846322e+00 242 236 219
2.214325e-01 6.176134e-01 -2.850921e+00 90 86 89
-8.841394e-02 6.119653e-01 -2.854742e+00 41 45 56
2.712242e-01 6.004312e-01 -2.835729e+00 197 45 91
-8.317571e-02 6.049751e-01 -2.855426e+00 55 60 67
-6.901062e-02 5.859519e-01 -2.848601e+00 83 87 96
5.489622e-01 5.772519e-01 -2.750193e+00 180 178 184
2.012479e-02 5.432316e-01 -2.822836e+00 49 41 41
-4.196291e-01 5.445774e-01 -2.702558e+00 68 107 112
8.076011e-03 5.450751e-01 -2.839567e+00 170 169 165
1.319567e-02 5.360011e-01 -2.825267e+00 43 34 37
2.591252e-01 5.154729e-01 -2.768966e+00 135 133 142
6.055560e-01 5.199487e-01 -2.724681e+00 96 86 85
6.239985e-01 5.139133e-01 -2.717082e+00 239 232 229
6.095560e-01 5.121937e-01 -2.732210e+00 195 216 222
-3.566306e-01 5.290651e-01 -2.820331e+00 50 62 82
-5.505269e-01 5.183641e-01 -2.693552e+00 36 30 34
-4.108998e-01 5.270537e-01 -2.823518e+00 17 18 23
-4.306622e-01 4.802257e-01 -2.683509e+00 94 84 83
-2.018865e-01 4.709319e-01 -2.765418e+00 134 137 128
-2.018865e-01 4.709319e-01 -2.765418e+00 134 137 128
-3.761279e-01 5.097201e-01 -2.823030e+00 14 19 25
-3.461578e-02 4.663774e-01 -2.820284e+00 176 166 154
1.568112e-01 4.482153e-01 -2.775907e+00 142 141 139
-1.720667e-01 4.524762e-01 -2.800877e+00 177 179 188
1.112879e-01 4.274380e-01 -2.771996e+00 150 149 145
7.579090e-02 4.219489e-01 -2.767111e+00 127 122 119
4.430418e-01 4.075708e-01 -2.769813e+00 180 170 172
-6.230231e-01 4.505753e-01 -2.719445e+00 57 41 65
-5.709900e-01 4.345283e-01 -2.714588e+00 181 171 160
-5.274125e-01 4.050015e-01 -2.707184e+00 183 181 170
7.253843e-01 3.972692e-01 -2.687071e+00 252 254 253
-3.269375e-01 3.900768e-01 -2.832382e+00 24 23 28
-8.879055e-02 3.522735e-01 -2.778109e+00 186 180 175
4.752629e-01 3.696670e-01 -2.805014e+00 45 48 48
-3.093799e-01 3.760596e-01 -2.831277e+00 95 94 95
-4.468144e-01 3.791680e-01 -2.818351e+00 15 20 23
-1.457435e-01 3.327434e-01 -2.786823e+00 166 173 179
1.060100e-01 3.157357e-01 -2.747636e+00 159 162 167
-4.358227e-01 3.635124e-01 -2.828896e+00 163 152 138
-4.741796e-01 3.623167e-01 -2.801916e+00 19 24 24
-1.118913e-01 3.159357e-01 -2.781696e+00 157 168 175
-3.118284e-01 3.013085e-01 -2.817265e+00 51 46 43
-2.504907e-01 2.947405e-01 -2.814186e+00 58 145 208
8.267419e-02 2.775838e-01 -2.792874e+00 123 110 91
-2.441126e-01 2.845733e-01 -2.802776e+00 26 44 79
1.868422e-01 2.675176e-01 -2.778081e+00 80 91 57
-6.731462e-02 2.355106e-01 -2.585778e+00 164 160 156
3.825384e-01 2.623665e-01 -2.779396e+00 156 155 152
1.629628e-01 2.473473e-01 -2.773436e+00 27 28 32
-4.581085e-01 2.731390e-01 -2.813953e+00 179 163 148
-4.581085e-01 2.731390e-01 -2.813953e+00 179 163 148
3.901620e-01 2.463712e-01 -2.786004e+00 49 50 56
-2.996110e-01 2.445298e-01 -2.806447e+00 163 150 133
-4.437001e-01 2.426062e-01 -2.809017e+00 176 166 155
-3.462699e-01 2.310892e-01 -2.805942e+00 26 25 23
-5.075903e-01 2.419910e-01 -2.809504e+00 147 139 127
-8.464707e-01 2.738596e-01 -2.808413e+00 102 101 103
-4.918158e-01 2.350134e-01 -2.808638e+00 136 131 112
-7.860992e-02 1.904802e-01 -2.576717e+00 149 150 146
-8.654632e-03 1.882404e-01 -2.580669e+00 144 144 144
-9.257574e-01 2.568179e-01 -2.779143e+00 37 39 34
-4.083801e-01 2.067297e-01 -2.801667e+00 175 167 158
-1.119637e+00 2.711206e-01 -2.879356e+00 66 61 53
-5.713873e-01 2.061725e-01 -2.802908e+00 33 35 43
4.220467e-01 1.683548e-01 -2.779982e+00 209 205 202
4.215447e-01 1.683731e-01 -2.778743e+00 209 205 202
-1.096581e+00 2.287266e-01 -2.871271e+00 145 137 110
6.128031e-01 1.710195e-01 -2.757840e+00 214 208 177
-8.977130e-01 2.072851e-01 -2.813345e+00 14 25 31
-1.240209e+00 2.207801e-01 -2.881308e+00 32 30 40
-8.644248e-01 1.915754e-01 -2.830845e+00 42 41 50
-2.194979e-02 1.407376e-01 -2.573167e+00 130 130 132
3.808240e-01 1.367134e-01 -2.768703e+00 122 120 112
4.153305e-02 1.223204e-01 -2.571010e+00 141 143 142
-1.989202e-02 1.182779e-01 -2.564653e+00 131 131 133
-3.254225e-01 1.248040e-01 -2.664171e+00 128 128 130
-4.525981e-01 1.149831e-01 -2.709821e+00 154 152 155
-3.506834e-01 1.017183e-01 -2.661294e+00 111 112 117
2.282145e-01 9.273780e-02 -2.715701e+00 90 96 62
-6.582321e-01 1.087011e-01 -2.739275e+00 34 25 23
-1.043773e+00 1.093036e-01 -2.820249e+00 71 69 72
-3.756578e-01 8.966868e-02 -2.650747e+00 113 113 117
-4.067244e-01 7.726892e-02 -2.656000e+00 148 146 150
-3.902093e-01 7.551113e-02 -2.652552e+00 112 112 114
3.476194e-01 5.019188e-02 -2.757018e+00 145 143 104
-9.501202e-01 6.549673e-02 -2.737853e+00 59 64 68
-2.818216e-01 4.888070e-02 -2.764175e+00 155 152 151
-8.088487e-01 6.105639e-02 -2.713532e+00 19 20 32
3.591497e-01 4.134892e-02 -2.755406e+00 152 150 110
2.936129e-01 3.935929e-02 -2.709773e+00 118 125 89
