ply
format ascii 1.0
element face 0
property list uchar int vertex_indices
element vertex 922
property float x
property float y
property float z
property uchar diffuse_red
property uchar diffuse_green
property uchar diffuse_blue
end_header
3.815398e-01 -6.948031e-01 -2.649426e+00 168 163 167
1.232744e+00 -7.936677e-01 -2.680406e+00 193 199 195
3.999871e-01 -7.072725e-01 -2.649883e+00 135 132 126
8.925985e-01 -7.945344e-01 -2.745964e+00 63 58 50
4.850824e-01 -7.000531e-01 -2.623886e+00 124 130 120
4.850824e-01 -7.000531e-01 -2.623886e+00 124 130 120
4.946640e-01 -7.039567e-01 -2.623502e+00 54 47 56
6.516015e-01 -7.127778e-01 -2.624914e+00 18 18 20
7.965747e-01 -8.235912e-01 -2.759028e+00 141 131 119
1.049221e+00 -8.742233e-01 -2.776889e+00 61 79 90
8.629053e-01 -8.200781e-01 -2.730182e+00 48 53 46
2.353347e-01 -7.196733e-01 -2.591215e+00 45 33 37
8.192270e-02 -7.562949e-01 -2.615654e+00 51 51 69
2.372418e-01 -7.248348e-01 -2.590964e+00 123 127 128
5.168878e-01 -7.526485e-01 -2.637717e+00 43 40 41
5.747588e-01 -7.626033e-01 -2.639882e+00 237 232 223
8.380307e-01 -8.409800e-01 -2.718400e+00 140 142 141
1.047793e+00 -9.122538e-01 -2.770374e+00 28 35 45
5.046871e-01 -7.652233e-01 -2.634660e+00 41 39 53
5.046871e-01 -7.652233e-01 -2.634660e+00 41 39 53
5.741536e-01 -7.778712e-01 -2.647721e+00 170 167 169
1.162927e-01 -7.831958e-01 -2.613538e+00 53 46 63
1.788817e-01 -7.625225e-01 -2.586448e+00 155 154 159
4.868811e-01 -7.771243e-01 -2.634227e+00 35 36 41
8.498430e-01 -8.596001e-01 -2.711599e+00 90 84 88
8.459009e-01 -8.672378e-01 -2.712824e+00 170 173 178
3.191057e-01 -8.220576e-01 -2.665777e+00 138 152 152
1.796060e-01 3.684123e-01 -2.759407e+00 57 60 77
6.090456e-01 2.734895e-01 -2.703658e+00 130 125 129
2.212336e-01 3.473030e-01 -2.755381e+00 140 163 193
1.323926e-01 3.485343e-01 -2.742552e+00 174 175 169
4.055551e-01 2.448447e-01 -2.775896e+00 123 121 118
5.224665e-01 1.905003e-01 -2.688799e+00 118 117 114
1.677209e-01 2.778783e-01 -2.773876e+00 35 35 31
4.316884e-01 2.342903e-01 -2.777673e+00 205 205 197
3.702577e-01 2.239026e-01 -2.781938e+00 73 86 101
3.954102e-01 2.166129e-01 -2.781316e+00 65 72 92
9.431367e-01 1.817021e-01 -2.806408e+00 68 77 76
9.431367e-01 1.817021e-01 -2.806408e+00 68 77 76
3.702219e-01 1.814675e-01 -2.774816e+00 66 67 72
4.482345e-01 1.238682e-01 -2.770136e+00 200 196 190
2.883622e-01 1.165013e-01 -2.757897e+00 34 43 27
2.883622e-01 1.165013e-01 -2.757897e+00 34 43 27
9.254181e-01 9.480165e-02 -2.796409e+00 189 185 176
2.872835e-01 1.038057e-01 -2.750517e+00 73 84 54
4.153681e-01 7.851139e-02 -2.722297e+00 34 39 35
5.013578e-01 6.421280e-02 -2.721501e+00 50 45 33
1.002204e+00 -1.566469e-01 -2.759784e+00 188 179 170
1.000827e+00 -1.728772e-01 -2.759079e+00 185 175 164
1.011519e+00 -1.871333e-01 -2.752164e+00 132 115 98
8.892523e-01 -1.893656e-01 -2.759293e+00 156 146 129
3.471136e-01 -1.906110e-01 -2.733869e+00 191 180 168
1.136956e+00 -2.493182e-01 -2.704729e+00 185 153 154
8.663072e-01 -2.550054e-01 -2.747925e+00 129 148 119
8.888006e-01 -2.575499e-01 -2.694269e+00 220 208 186
1.044013e-01 -2.391113e-01 -2.659688e+00 64 63 73
-3.516805e-01 -2.197552e-01 -2.723575e+00 38 35 45
-3.516805e-01 -2.197552e-01 -2.723575e+00 38 35 45
1.169760e-01 -2.640351e-01 -2.659295e+00 160 157 154
3.149767e-01 -2.787862e-01 -2.648826e+00 98 89 83
-4.907795e-01 -2.701114e-01 -2.714015e+00 166 158 164
2.773544e-01 -2.997580e-01 -2.640424e+00 22 25 31
7.906533e-01 -3.282214e-01 -2.641240e+00 46 75 96
-4.752734e-02 -3.665230e-01 -2.718595e+00 166 153 145
1.131920e-01 -3.916127e-01 -2.717932e+00 52 55 62
-1.249587e-01 -3.982711e-01 -2.709788e+00 43 52 31
4.446450e-01 -4.069899e-01 -2.712519e+00 71 72 76
4.446450e-01 -4.069899e-01 -2.712519e+00 71 72 76
-1.436571e-01 -3.998868e-01 -2.683726e+00 21 25 25
9.813442e-01 -4.514485e-01 -2.620836e+00 149 150 154
3.867378e-01 -4.568012e-01 -2.702888e+00 165 171 175
3.682684e-01 -4.787487e-01 -2.701835e+00 192 196 198
-7.021402e-02 -4.874726e-01 -2.698729e+00 16 18 22
-9.068540e-02 -4.601917e-01 -2.544280e+00 92 75 81
-9.068540e-02 -4.601917e-01 -2.544280e+00 92 75 81
8.089962e-02 -5.305161e-01 -2.677121e+00 120 121 122
9.168050e-01 -5.858660e-01 -2.742331e+00 171 169 170
2.051999e-01 -5.498483e-01 -2.676625e+00 34 28 22
2.640360e-02 -5.808955e-01 -2.666091e+00 20 29 30
8.083833e-02 -5.918021e-01 -2.703842e+00 175 172 167
5.185254e-01 -5.517371e-01 -2.631148e+00 128 127 122
4.118185e-01 -5.452961e-01 -2.613909e+00 44 38 38
-1.018507e-01 -5.471954e-01 -2.535575e+00 36 33 45
1.185504e-01 -5.979174e-01 -2.706088e+00 53 45 57
-9.503617e-02 -5.519524e-01 -2.541529e+00 64 64 85
-9.503617e-02 -5.519524e-01 -2.541529e+00 64 64 85
1.268691e-01 -6.018581e-01 -2.705684e+00 229 228 232
9.153894e-01 -6.280250e-01 -2.721427e+00 150 134 142
9.427505e-01 -6.320361e-01 -2.724647e+00 193 201 209
-6.069189e-02 -6.056797e-01 -2.672814e+00 24 27 34
2.639025e-02 -6.005762e-01 -2.668196e+00 21 25 33
2.554902e-01 -6.014004e-01 -2.700296e+00 44 58 77
2.408396e-01 -6.012438e-01 -2.676764e+00 175 121 69
2.136202e-01 -6.044046e-01 -2.678075e+00 169 147 114
5.287615e-01 -5.885790e-01 -2.626721e+00 169 169 169
1.253089e+00 -7.304564e-01 -2.764431e+00 51 60 75
1.282233e+00 -7.044552e-01 -2.699805e+00 93 101 132
1.228582e+00 -7.387634e-01 -2.783141e+00 186 187 169
5.319143e-01 -5.979428e-01 -2.633510e+00 133 134 136
1.163290e+00 -7.274774e-01 -2.772688e+00 182 169 157
5.253169e-02 -6.511663e-01 -2.697195e+00 105 106 108
8.698216e-01 -6.815654e-01 -2.727790e+00 89 88 90
3.402879e-01 -6.203984e-01 -2.639336e+00 152 145 141
1.247548e+00 -7.453886e-01 -2.709125e+00 83 88 110
1.247548e+00 -7.453886e-01 -2.709125e+00 83 88 110
1.226818e+00 -7.641586e-01 -2.743397e+00 210 213 198
3.959521e-01 -6.508588e-01 -2.651200e+00 165 166 163
1.243700e+00 -7.637609e-01 -2.701823e+00 231 232 234
8.408733e-02 -7.091992e-01 -2.697158e+00 55 47 54
5.949123e-02 -7.131598e-01 -2.691884e+00 129 122 104
1.245103e+00 -7.753911e-01 -2.683608e+00 206 208 202
6.259780e-01 -6.957246e-01 -2.649832e+00 17 21 22
9.394801e-01 -7.765231e-01 -2.731613e+00 77 91 104
9.394801e-01 -7.765231e-01 -2.731613e+00 77 91 104
4.669282e-01 -6.779424e-01 -2.620350e+00 153 153 155
6.289911e-01 -6.991153e-01 -2.645717e+00 19 23 22
9.761743e-01 -8.121525e-01 -2.738864e+00 58 59 68
9.761743e-01 -8.121525e-01 -2.738864e+00 58 59 68
1.266721e+00 -8.322204e-01 -2.696250e+00 55 73 103
8.047772e-01 -8.058113e-01 -2.740891e+00 130 124 114
2.829775e-01 -7.139904e-01 -2.606519e+00 137 137 139
1.830528e-01 -7.172022e-01 -2.588544e+00 128 129 134
1.830528e-01 -7.172022e-01 -2.588544e+00 128 129 134
8.845684e-02 -7.553426e-01 -2.617472e+00 182 177 167
8.596668e-01 -8.273227e-01 -2.725315e+00 137 142 138
9.392927e-01 -8.621957e-01 -2.755411e+00 8 11 14
3.069578e-01 -7.838097e-01 -2.674891e+00 16 21 26
2.419140e-01 -7.403125e-01 -2.591514e+00 101 104 111
2.418314e-01 -7.512129e-01 -2.593185e+00 107 110 116
9.405538e-01 -8.890816e-01 -2.760790e+00 232 234 230
3.094864e-01 -7.953140e-01 -2.666339e+00 63 70 78
1.966438e-01 -7.544047e-01 -2.586394e+00 160 160 162
6.030107e-01 2.813008e-01 -2.703789e+00 125 123 128
2.097967e-01 3.614416e-01 -2.769573e+00 28 28 39
4.951633e-01 2.301834e-01 -2.670859e+00 145 145 145
4.836100e-01 2.264532e-01 -2.674943e+00 136 133 144
5.345687e-01 2.269894e-01 -2.686706e+00 55 61 64
3.181392e-01 3.005450e-01 -2.787663e+00 185 179 177
5.539832e-01 2.252146e-01 -2.688987e+00 179 175 174
5.658452e-01 2.143199e-01 -2.688365e+00 154 152 153
1.076833e-01 3.039285e-01 -2.743491e+00 162 157 154
7.820458e-01 2.495724e-01 -2.806341e+00 168 161 150
3.820694e-01 2.475254e-01 -2.786139e+00 167 163 160
4.077800e-01 1.978468e-01 -2.785278e+00 48 50 64
4.091525e-01 1.775791e-01 -2.778260e+00 218 213 214
5.094656e-01 1.558941e-01 -2.753859e+00 79 144 191
3.727516e-01 1.568391e-01 -2.770453e+00 54 56 64
8.017743e-01 1.358715e-01 -2.797752e+00 172 167 163
9.936281e-01 1.058962e-01 -2.803312e+00 187 169 144
1.179524e+00 -1.642955e-01 -2.747763e+00 241 239 227
8.834491e-01 -2.170937e-01 -2.753017e+00 88 94 74
7.599716e-01 -2.746944e-01 -2.744523e+00 140 153 118
-8.097255e-02 -2.555633e-01 -2.692265e+00 23 23 31
-6.997042e-01 -2.392162e-01 -2.777512e+00 145 134 132
1.060962e+00 -3.200876e-01 -2.698367e+00 119 129 114
3.500925e-01 -3.360501e-01 -2.595159e+00 26 29 36
4.542787e-01 -3.872356e-01 -2.717308e+00 31 39 52
-2.052230e-01 -3.733930e-01 -2.629096e+00 36 34 41
-9.708069e-02 -4.652220e-01 -2.678738e+00 14 15 20
-9.708069e-02 -4.652220e-01 -2.678738e+00 14 15 20
-9.708069e-02 -4.652220e-01 -2.678738e+00 14 15 20
6.191407e-01 -5.006464e-01 -2.733209e+00 158 160 161
-9.291340e-02 -4.596818e-01 -2.579635e+00 20 19 24
4.618749e-01 -5.190784e-01 -2.619056e+00 34 39 45
1.296005e+00 -6.699537e-01 -2.758095e+00 168 157 163
1.329113e+00 -6.630957e-01 -2.722679e+00 46 43 68
1.290933e+00 -6.970188e-01 -2.691654e+00 185 193 197
3.663543e-01 -6.145722e-01 -2.644525e+00 123 123 125
1.272234e+00 -7.217860e-01 -2.685270e+00 190 194 192
4.996359e-01 -6.131847e-01 -2.625986e+00 148 150 152
1.266337e+00 -7.397428e-01 -2.699308e+00 90 96 113
1.257747e+00 -7.422665e-01 -2.705722e+00 192 199 208
7.424561e-01 -7.232914e-01 -2.745797e+00 148 149 144
8.951739e-01 -7.640265e-01 -2.747005e+00 49 45 42
4.946586e-01 -6.751478e-01 -2.624468e+00 149 152 159
5.780884e-01 -6.958176e-01 -2.636584e+00 24 26 22
4.260445e-01 -7.054245e-01 -2.650423e+00 187 184 171
6.526390e-01 -7.055460e-01 -2.626290e+00 78 83 76
8.127994e-01 -8.114836e-01 -2.738356e+00 153 148 137
2.349282e-01 -7.232002e-01 -2.587199e+00 120 123 128
5.155945e-01 -7.659253e-01 -2.642378e+00 193 186 174
3.911725e-01 3.065863e-01 -2.784760e+00 201 194 188
5.843820e-01 2.251725e-01 -2.686796e+00 163 158 163
5.377891e-01 1.841574e-01 -2.704369e+00 32 37 45
4.713899e-01 1.752544e-01 -2.772317e+00 206 201 195
4.973897e-01 1.423951e-01 -2.745886e+00 130 164 188
9.670644e-01 1.551623e-01 -2.815050e+00 181 172 166
3.430306e-01 1.515999e-01 -2.768219e+00 115 112 75
9.857805e-01 1.422985e-01 -2.812055e+00 173 168 128
9.491374e-01 1.214699e-01 -2.794256e+00 197 183 172
3.426056e-01 1.248874e-01 -2.765628e+00 140 135 97
2.482013e-01 5.518385e-02 -2.711659e+00 31 35 34
1.185015e+00 -1.487215e-01 -2.734803e+00 162 136 147
1.016330e+00 -1.709756e-01 -2.759702e+00 187 172 140
2.018557e-01 -1.787342e-01 -2.642616e+00 172 169 160
1.166775e+00 -2.219655e-01 -2.718198e+00 174 144 144
-1.122496e-01 -1.781373e-01 -2.650411e+00 168 171 176
2.522623e-01 -2.304753e-01 -2.729531e+00 171 155 142
-7.306903e-02 -2.454129e-01 -2.661254e+00 23 24 29
3.446705e-02 -2.682413e-01 -2.654508e+00 35 36 45
5.233783e-01 -3.255169e-01 -2.733110e+00 152 156 160
-1.033641e-01 -3.051276e-01 -2.675211e+00 32 32 39
-6.184229e-01 -3.150371e-01 -2.758280e+00 166 155 135
-1.481387e-01 -3.226849e-01 -2.631352e+00 22 23 28
8.237236e-01 -3.880732e-01 -2.657515e+00 105 106 110
-1.660236e-01 -3.657868e-01 -2.637803e+00 26 31 43
1.032826e-01 -3.881416e-01 -2.712830e+00 70 80 92
-3.074788e-01 -3.728585e-01 -2.624542e+00 152 152 159
4.352429e-01 -4.084879e-01 -2.710863e+00 142 151 156
4.092283e-01 -4.593761e-01 -2.702229e+00 179 161 157
6.046228e-01 -4.938142e-01 -2.735221e+00 65 74 91
6.046228e-01 -4.938142e-01 -2.735221e+00 65 74 91
-7.155065e-02 -4.800542e-01 -2.678556e+00 47 42 46
-9.894360e-02 -4.652052e-01 -2.539735e+00 28 35 49
5.996110e-01 -5.233399e-01 -2.732900e+00 59 65 77
-1.666580e-01 -5.229973e-01 -2.542832e+00 94 86 109
4.542038e-01 -5.256711e-01 -2.621897e+00 147 142 131
4.674846e-01 -5.283005e-01 -2.621602e+00 32 36 40
6.633697e-01 -5.866722e-01 -2.738309e+00 155 157 156
4.748754e-01 -5.393117e-01 -2.623243e+00 32 35 41
4.279394e-01 -5.400902e-01 -2.616943e+00 188 188 185
4.741010e-01 -5.475811e-01 -2.619095e+00 159 149 140
1.602587e-01 -6.024912e-01 -2.709140e+00 182 172 162
4.115353e-01 -5.548017e-01 -2.614059e+00 35 35 43
4.813311e-01 -5.593112e-01 -2.622659e+00 161 149 129
4.570609e-01 -5.723967e-01 -2.623370e+00 144 145 147
4.700829e-01 -5.722232e-01 -2.622448e+00 177 177 179
3.311897e-01 -5.922389e-01 -2.644981e+00 172 162 160
3.311897e-01 -5.922389e-01 -2.644981e+00 172 162 160
1.254798e+00 -7.238535e-01 -2.747092e+00 202 201 195
2.022198e-01 -6.268917e-01 -2.679266e+00 126 122 123
9.983285e-01 -6.987871e-01 -2.752373e+00 72 86 61
3.509986e-01 -6.113823e-01 -2.645511e+00 144 138 139
9.918181e-01 -7.200795e-01 -2.759861e+00 103 114 85
9.500260e-01 -7.231196e-01 -2.755967e+00 82 78 63
9.842310e-01 -7.435649e-01 -2.762693e+00 133 131 106
-1.369124e-01 -6.662071e-01 -2.578088e+00 186 184 189
6.341363e-02 -7.002854e-01 -2.692623e+00 144 135 127
1.136242e+00 -7.692247e-01 -2.725614e+00 39 37 37
1.247963e+00 -7.746557e-01 -2.687933e+00 197 199 191
4.676090e-01 -6.692412e-01 -2.622323e+00 151 151 154
2.078541e-01 -6.831096e-01 -2.622941e+00 95 99 105
1.788753e-01 -7.033105e-01 -2.602166e+00 38 39 47
2.702408e-01 -7.041317e-01 -2.607203e+00 138 137 141
2.820795e-01 -7.005166e-01 -2.601281e+00 119 119 124
6.365890e-01 -7.123926e-01 -2.619092e+00 91 95 70
8.866088e-01 -8.089113e-01 -2.734111e+00 165 167 162
1.037620e-01 -7.481295e-01 -2.616145e+00 120 112 106
8.710658e-01 -8.209643e-01 -2.731318e+00 111 112 121
3.878948e-01 -7.310124e-01 -2.615208e+00 24 25 30
8.463715e-01 -8.344100e-01 -2.720999e+00 37 35 36
2.517752e-01 -7.499437e-01 -2.598853e+00 99 100 106
9.874453e-02 -8.078692e-01 -2.614692e+00 179 171 161
9.874453e-02 -8.078692e-01 -2.614692e+00 179 171 161
8.699079e-01 3.131752e-01 -2.810564e+00 44 44 44
5.379707e-01 2.497474e-01 -2.681291e+00 170 167 162
3.241810e-01 3.200492e-01 -2.775240e+00 41 40 46
5.072154e-01 2.313997e-01 -2.682825e+00 108 104 111
3.671274e-01 2.453249e-01 -2.785769e+00 77 85 97
3.565923e-01 1.522603e-01 -2.766471e+00 28 29 31
9.778894e-01 1.229218e-01 -2.802947e+00 171 166 128
9.520144e-01 -8.718387e-02 -2.737421e+00 36 42 40
-3.953534e-01 1.128596e-02 -2.686586e+00 41 40 46
-4.186139e-01 -1.198804e-01 -2.757202e+00 62 56 64
-4.283587e-01 -1.213816e-01 -2.739237e+00 56 65 61
-3.471642e-01 -2.388031e-01 -2.716740e+00 46 48 56
9.990097e-02 -2.754094e-01 -2.658268e+00 162 158 155
2.810483e-01 -2.907367e-01 -2.640340e+00 22 24 37
-2.144930e-01 -2.812595e-01 -2.634345e+00 164 162 167
-8.306848e-02 -3.544716e-01 -2.716375e+00 97 121 79
-5.989855e-02 -3.755747e-01 -2.715432e+00 26 30 31
-2.436175e-01 -3.887161e-01 -2.624376e+00 176 175 180
7.741136e-01 -4.223981e-01 -2.608197e+00 92 95 104
7.432918e-01 -4.469345e-01 -2.606304e+00 201 205 206
3.245654e-01 -5.420633e-01 -2.729739e+00 156 144 122
3.055455e-01 -5.816384e-01 -2.725529e+00 125 116 99
-9.925118e-02 -5.613404e-01 -2.541026e+00 174 164 172
5.186991e-01 -6.187012e-01 -2.627678e+00 125 130 134
1.256784e+00 -7.375085e-01 -2.709020e+00 205 207 192
1.256784e+00 -7.375085e-01 -2.709020e+00 205 207 192
6.031785e-01 -6.800884e-01 -2.721587e+00 36 42 48
1.254603e+00 -7.493779e-01 -2.697059e+00 122 118 129
6.105639e-01 -7.002107e-01 -2.715820e+00 25 29 38
1.215623e+00 -7.844194e-01 -2.733477e+00 200 199 190
1.281480e+00 -7.743941e-01 -2.700950e+00 151 155 161
8.906629e-01 -7.457026e-01 -2.743590e+00 149 143 122
8.421879e-01 -7.393146e-01 -2.732681e+00 31 31 31
2.465994e-01 -7.148217e-01 -2.602682e+00 153 153 156
1.069365e+00 -8.732272e-01 -2.764628e+00 190 184 169
1.019827e+00 -8.906693e-01 -2.774609e+00 170 159 154
1.120543e-01 -7.958512e-01 -2.616962e+00 40 39 45
1.739456e-01 2.893222e-01 -2.779001e+00 149 135 115
-5.213893e-01 -2.527522e-01 -2.735874e+00 43 41 44
-5.213893e-01 -2.527522e-01 -2.735874e+00 43 41 44
-5.922994e-02 -3.766589e-01 -2.715624e+00 39 43 46
-6.218386e-02 -5.048070e-01 -2.689396e+00 50 43 50
-1.194014e-01 -5.068220e-01 -2.544771e+00 186 181 184
1.421928e-01 -6.059912e-01 -2.710109e+00 104 112 130
1.271719e+00 -7.029231e-01 -2.748471e+00 199 199 196
1.282138e+00 -7.037427e-01 -2.717019e+00 211 213 208
3.491243e-01 -5.966661e-01 -2.641282e+00 31 35 46
1.171109e+00 -7.197433e-01 -2.768393e+00 160 140 138
1.264711e+00 -7.246575e-01 -2.734681e+00 223 229 239
1.235955e+00 -7.688280e-01 -2.705217e+00 162 167 174
1.235955e+00 -7.688280e-01 -2.705217e+00 162 167 174
8.514427e-01 -7.713627e-01 -2.731663e+00 78 71 68
8.514427e-01 -7.713627e-01 -2.731663e+00 78 71 68
4.903271e-01 -6.877028e-01 -2.624024e+00 39 52 69
3.794395e-01 -7.301196e-01 -2.656929e+00 24 25 30
6.237864e-01 -7.245389e-01 -2.627139e+00 25 29 28
8.657911e-01 -8.380713e-01 -2.718174e+00 154 158 161
5.011362e-01 1.841716e-01 -2.675698e+00 146 141 145
3.694397e-01 2.140708e-01 -2.779905e+00 76 86 98
-1.404122e-01 -4.065234e-01 -2.703256e+00 17 18 22
9.119658e-01 -7.872304e-01 -2.748032e+00 136 135 114
1.236653e-01 3.098230e-01 -2.749420e+00 167 161 148
8.487512e-01 2.569702e-01 -2.796316e+00 170 153 122
9.936561e-01 1.360657e-01 -2.791786e+00 191 177 151
2.806212e-01 2.824848e-02 -2.709987e+00 126 131 94
8.698361e-01 -2.625894e-01 -2.729177e+00 228 230 217
8.698361e-01 -2.625894e-01 -2.729177e+00 228 230 217
-9.610247e-02 -2.600374e-01 -2.638890e+00 163 161 163
-9.610247e-02 -2.600374e-01 -2.638890e+00 163 161 163
-2.327099e-01 -3.746111e-01 -2.624964e+00 158 154 158
3.882661e-01 -5.038245e-01 -2.714313e+00 158 175 182
-1.168001e-01 -4.800433e-01 -2.536144e+00 197 192 188
3.464524e-02 -5.916186e-01 -2.669837e+00 21 29 32
6.407180e-01 -6.450132e-01 -2.721589e+00 46 53 62
1.199519e+00 -7.413691e-01 -2.772376e+00 40 46 49
6.200975e-01 -6.714006e-01 -2.718694e+00 178 174 171
8.968629e-02 -6.908569e-01 -2.698187e+00 174 167 158
4.773372e-01 -6.352405e-01 -2.618795e+00 146 146 145
5.097417e-01 -6.631582e-01 -2.631849e+00 174 170 166
2.951677e-01 -6.593669e-01 -2.608662e+00 33 36 43
1.039799e+00 -8.180460e-01 -2.760052e+00 193 190 182
5.113005e-01 -7.052608e-01 -2.628903e+00 98 90 87
6.352867e-01 -1.755589e-02 -2.744306e+00 37 36 41
1.141221e-01 -6.269674e-01 -2.699715e+00 165 162 157
1.038439e+00 -7.814024e-01 -2.756507e+00 226 235 232
-7.209515e-02 -4.982651e-01 -2.642242e+00 73 58 63
-7.209515e-02 -4.982651e-01 -2.642242e+00 73 58 63
-1.928154e-02 -7.402387e-01 -2.637835e+00 27 26 31
2.227220e-01 -7.035308e-01 -2.609981e+00 27 29 41
2.035468e-02 -7.715424e-01 -2.658472e+00 33 36 41
-4.265922e-02 -1.362468e-01 -2.690533e+00 150 155 154
-8.396686e-02 -2.324824e-01 -2.637964e+00 174 179 190
4.487026e-01 -5.550806e-01 -2.621609e+00 168 170 169
6.649445e-01 -6.239839e-01 -2.731209e+00 163 163 163
1.262785e+00 -7.324625e-01 -2.752081e+00 200 203 194
8.905400e-01 9.478213e-02 -2.767604e+00 186 181 174
8.663328e-02 -2.730521e-01 -2.646510e+00 189 185 183
-6.902710e-02 -3.072748e-01 -2.638838e+00 27 28 33
-1.591325e-01 -1.292716e-01 -2.645195e+00 198 194 191
8.337544e-01 4.966337e-01 -2.822495e+00 202 182 170
9.534303e-01 5.028938e-01 -2.824462e+00 212 214 235
5.981059e-01 4.460325e-01 -2.734414e+00 219 204 201
2.048558e-01 5.343364e-01 -2.826194e+00 201 208 197
7.713999e-01 4.369037e-01 -2.749225e+00 245 247 248
7.713999e-01 4.369037e-01 -2.749225e+00 245 247 248
2.191652e-01 5.205449e-01 -2.825243e+00 182 167 175
8.617874e-01 4.772484e-01 -2.861692e+00 201 195 153
2.159639e-01 5.090961e-01 -2.822616e+00 152 151 159
6.644052e-01 3.975212e-01 -2.697628e+00 131 105 91
1.068937e+00 4.632305e-01 -2.802981e+00 30 36 24
1.755626e-01 4.968733e-01 -2.801741e+00 194 179 174
9.377746e-01 4.515961e-01 -2.833416e+00 76 73 91
9.400670e-01 4.510999e-01 -2.832223e+00 247 244 250
9.453216e-01 4.471169e-01 -2.829682e+00 81 73 89
9.389834e-01 4.481009e-01 -2.837441e+00 226 220 231
1.956312e-01 4.791860e-01 -2.802743e+00 43 43 43
6.418945e-01 3.880663e-01 -2.718158e+00 250 249 251
8.561552e-01 4.503054e-01 -2.864392e+00 172 172 161
9.458947e-01 4.426170e-01 -2.833320e+00 81 71 101
2.789148e-01 4.441559e-01 -2.768443e+00 70 66 39
1.049594e-01 4.746914e-01 -2.779873e+00 139 135 134
8.855064e-01 4.389439e-01 -2.869716e+00 195 190 186
8.690474e-01 4.365866e-01 -2.867265e+00 189 191 169
6.904899e-01 3.641315e-01 -2.696008e+00 181 164 152
6.904899e-01 3.641315e-01 -2.696008e+00 181 164 152
1.013425e+00 4.287204e-01 -2.822083e+00 129 136 101
4.446130e-01 4.096644e-01 -2.779212e+00 153 146 136
8.963822e-01 4.255764e-01 -2.867480e+00 138 131 122
7.065808e-01 3.521614e-01 -2.696628e+00 176 167 144
5.985180e-01 3.595343e-01 -2.718816e+00 244 250 247
5.957083e-01 3.593443e-01 -2.719370e+00 41 35 56
9.654903e-01 4.156844e-01 -2.858442e+00 60 54 33
3.340549e-01 4.016058e-01 -2.806381e+00 197 198 202
2.517303e-01 4.049951e-01 -2.818761e+00 110 97 99
5.695108e-01 3.184613e-01 -2.703107e+00 140 135 139
5.924384e-01 3.167079e-01 -2.705063e+00 158 156 160
4.760191e-01 3.299317e-01 -2.728799e+00 230 88 123
9.261434e-01 3.607642e-01 -2.842266e+00 81 74 51
9.903790e-01 3.607720e-01 -2.854100e+00 244 235 230
3.993481e-01 3.366617e-01 -2.755544e+00 167 164 153
-2.784068e-02 4.264367e-01 -2.797459e+00 173 166 178
1.032304e+00 3.640919e-01 -2.860109e+00 89 21 21
5.567601e-01 2.990930e-01 -2.690791e+00 178 180 191
4.768286e-01 3.136373e-01 -2.721996e+00 62 71 64
4.761417e-01 3.150334e-01 -2.727632e+00 62 71 64
5.247463e-02 3.891774e-01 -2.758920e+00 190 182 180
4.741597e-01 3.117687e-01 -2.724959e+00 37 42 49
8.903307e-01 3.299753e-01 -2.828732e+00 135 128 109
3.087252e-01 3.354722e-01 -2.764821e+00 185 178 157
1.115124e+00 3.254295e-01 -2.765681e+00 245 251 255
4.217040e-01 3.193424e-01 -2.796153e+00 132 123 124
1.042170e+00 3.349951e-01 -2.862277e+00 197 188 167
5.446401e-01 2.743625e-01 -2.681740e+00 178 173 167
1.040100e+00 3.308379e-01 -2.861404e+00 205 194 171
5.072993e-01 2.734678e-01 -2.681322e+00 147 143 144
3.944437e-01 3.136964e-01 -2.786926e+00 94 82 97
6.952873e-01 2.743890e-01 -2.725706e+00 68 70 51
5.018248e-01 2.686835e-01 -2.678519e+00 192 187 191
8.963004e-01 3.002713e-01 -2.823977e+00 157 140 111
5.230843e-01 2.524865e-01 -2.675476e+00 180 178 179
8.213572e-02 3.265431e-01 -2.749600e+00 134 134 135
5.035716e-01 2.498222e-01 -2.674801e+00 156 152 150
1.902206e-01 3.107859e-01 -2.785579e+00 35 33 34
2.275208e-01 3.057047e-01 -2.788252e+00 138 126 112
1.005712e+00 2.864861e-01 -2.848899e+00 84 74 65
5.649602e-01 2.344135e-01 -2.675507e+00 178 187 194
2.261256e-01 2.948894e-01 -2.786195e+00 43 49 25
2.261256e-01 2.948894e-01 -2.786195e+00 43 49 25
1.011332e+00 2.806522e-01 -2.846818e+00 110 90 78
1.011332e+00 2.806522e-01 -2.846818e+00 110 90 78
7.483012e-01 2.619365e-01 -2.814673e+00 80 72 62
1.661500e-01 3.008552e-01 -2.782659e+00 203 198 200
1.661500e-01 3.008552e-01 -2.782659e+00 203 198 200
1.281456e-01 2.984183e-01 -2.749049e+00 52 57 61
1.281456e-01 2.984183e-01 -2.749049e+00 52 57 61
1.232561e-01 2.980693e-01 -2.747538e+00 173 179 178
2.351883e-01 2.877730e-01 -2.787096e+00 55 58 35
2.325328e-01 2.872712e-01 -2.787309e+00 130 132 111
3.315137e-01 2.713961e-01 -2.790365e+00 184 176 173
5.918157e-01 2.256635e-01 -2.685705e+00 142 151 160
1.079895e-01 2.923399e-01 -2.744950e+00 145 129 132
4.081737e-01 2.565471e-01 -2.780944e+00 197 194 191
1.783914e-01 2.853484e-01 -2.782683e+00 158 151 130
3.085768e-01 2.657203e-01 -2.787406e+00 208 203 199
3.625655e-01 2.520186e-01 -2.785168e+00 200 203 197
7.397712e-01 2.354492e-01 -2.802824e+00 179 170 176
7.926445e-01 2.338763e-01 -2.818122e+00 123 116 95
3.847902e-01 2.388427e-01 -2.787366e+00 151 161 170
4.298414e-01 2.304932e-01 -2.776461e+00 209 209 209
4.365199e-01 2.288276e-01 -2.776959e+00 133 129 126
1.013832e+00 2.354823e-01 -2.839245e+00 237 225 211
4.370032e-01 2.266422e-01 -2.776349e+00 187 183 182
4.370032e-01 2.266422e-01 -2.776349e+00 187 183 182
3.438746e-01 2.324605e-01 -2.779914e+00 196 201 193
3.715645e-01 2.292870e-01 -2.784891e+00 141 152 159
3.843572e-01 2.221200e-01 -2.785114e+00 75 79 91
4.379486e-01 2.151098e-01 -2.773435e+00 95 93 106
9.472717e-01 1.969208e-01 -2.820743e+00 179 180 167
-6.536132e-02 2.369615e-01 -2.781868e+00 128 120 115
-6.536132e-02 2.369615e-01 -2.781868e+00 128 120 115
1.018725e+00 1.697697e-01 -2.818247e+00 108 103 81
9.749493e-01 1.655360e-01 -2.820086e+00 208 201 193
1.028940e+00 1.641597e-01 -2.817651e+00 254 252 228
-1.089663e-01 2.065165e-01 -2.579634e+00 158 183 167
8.421230e-01 1.435845e-01 -2.798932e+00 195 194 175
8.421230e-01 1.435845e-01 -2.798932e+00 195 194 175
8.734561e-01 1.237489e-01 -2.804617e+00 125 116 109
-2.150784e-02 1.498030e-01 -2.585499e+00 168 166 169
-2.476830e-02 1.479822e-01 -2.584054e+00 160 158 161
-3.929817e-02 1.480092e-01 -2.584884e+00 140 135 141
1.714986e-02 1.351685e-01 -2.582370e+00 140 137 139
-6.006702e-01 1.999296e-01 -2.820089e+00 78 85 89
1.158054e+00 7.725842e-02 -2.817777e+00 247 249 246
1.138261e+00 6.557559e-02 -2.817287e+00 209 208 203
8.236767e-01 5.088108e-02 -2.742639e+00 138 140 135
8.229985e-01 4.657652e-02 -2.741412e+00 201 208 201
-7.159739e-02 9.599789e-02 -2.572078e+00 50 63 63
9.474727e-01 4.431237e-02 -2.793391e+00 190 190 159
8.934906e-01 4.334087e-02 -2.795068e+00 82 83 76
8.934906e-01 4.334087e-02 -2.795068e+00 82 83 76
1.055661e+00 4.636246e-02 -2.804307e+00 193 194 186
-1.332075e-02 8.362723e-02 -2.573700e+00 162 165 164
1.149719e+00 4.333829e-02 -2.794178e+00 207 212 216
1.141380e+00 3.492054e-02 -2.796198e+00 122 122 129
1.145681e+00 2.988687e-02 -2.753349e+00 255 254 255
1.114819e+00 6.717203e-03 -2.801817e+00 247 252 214
1.111858e+00 4.213156e-03 -2.798835e+00 245 248 221
7.375515e-01 3.077355e-03 -2.631927e+00 205 209 220
9.981109e-01 -1.850936e-03 -2.798368e+00 181 177 164
-3.254824e-02 4.287879e-02 -2.515313e+00 23 22 52
-3.371715e-03 3.429080e-02 -2.522071e+00 146 144 149
1.100773e+00 -1.922655e-02 -2.798028e+00 243 245 244
9.155586e-01 -2.412180e-02 -2.776135e+00 139 140 135
3.304099e-02 7.748279e-03 -2.598399e+00 184 202 212
3.221454e-02 7.639542e-03 -2.599638e+00 184 202 212
1.096455e-01 -6.617468e-05 -2.618346e+00 87 76 85
2.838001e-02 3.202527e-03 -2.599252e+00 202 207 231
1.057043e-01 -1.675486e-02 -2.620914e+00 42 44 52
1.151062e-02 -3.112558e-02 -2.579792e+00 191 216 227
-3.801888e-01 -2.527943e-02 -2.734987e+00 77 71 105
1.115641e+00 -9.223595e-02 -2.800510e+00 178 171 152
7.517361e-02 -6.519550e-02 -2.584376e+00 56 52 64
1.233621e+00 -1.138958e-01 -2.756009e+00 238 198 140
9.728268e-01 -1.404224e-01 -2.756625e+00 100 99 97
1.244233e+00 -1.614444e-01 -2.758868e+00 149 133 81
1.775520e-01 -1.251800e-01 -2.610366e+00 196 201 207
-6.577666e-02 -1.477385e-01 -2.707310e+00 183 183 181
-6.577666e-02 -1.477385e-01 -2.707310e+00 183 183 181
1.249349e+00 -1.902138e-01 -2.760039e+00 187 159 122
1.155731e+00 -2.096492e-01 -2.761847e+00 121 103 105
1.069900e+00 -2.072370e-01 -2.755798e+00 107 107 108
-1.307615e-01 -1.826211e-01 -2.657942e+00 184 177 192
1.136162e+00 -2.255874e-01 -2.751161e+00 229 227 204
1.282750e+00 -2.391629e-01 -2.767734e+00 220 215 206
1.068084e+00 -2.383355e-01 -2.774150e+00 115 113 87
1.269491e+00 -2.669538e-01 -2.743363e+00 167 163 176
8.791047e-01 -2.496919e-01 -2.744802e+00 111 108 93
6.042672e-01 -2.444410e-01 -2.729786e+00 207 213 230
9.604683e-01 -2.507635e-01 -2.665663e+00 64 60 77
1.004230e-01 -2.418101e-01 -2.661353e+00 190 190 189
8.672527e-01 -2.734731e-01 -2.747149e+00 87 92 62
8.836029e-01 -2.635300e-01 -2.691382e+00 223 215 192
1.236371e+00 -3.040589e-01 -2.716902e+00 182 192 184
1.230279e+00 -3.074798e-01 -2.715962e+00 98 100 125
4.062783e-02 -2.665791e-01 -2.658389e+00 53 50 62
5.267602e-02 -2.658594e-01 -2.658821e+00 168 162 162
1.267954e+00 -3.166612e-01 -2.726369e+00 193 193 200
9.054986e-01 -2.844117e-01 -2.700540e+00 123 113 94
-1.669839e-01 -2.774933e-01 -2.646150e+00 48 52 80
2.081513e-01 -2.875746e-01 -2.729483e+00 156 144 135
2.081513e-01 -2.875746e-01 -2.729483e+00 156 144 135
1.266312e+00 -3.197149e-01 -2.722452e+00 115 119 122
1.402397e+00 -3.671543e-01 -2.843909e+00 113 87 98
7.537180e-01 -2.953042e-01 -2.741533e+00 197 197 168
1.157809e+00 -3.369626e-01 -2.787590e+00 177 171 182
3.298152e-01 -2.696333e-01 -2.653221e+00 194 185 185
1.412361e+00 -3.765024e-01 -2.834732e+00 221 194 185
7.611985e-01 -3.085674e-01 -2.743278e+00 201 194 176
8.729271e-01 -3.100671e-01 -2.731889e+00 130 127 115
1.267007e+00 -3.425288e-01 -2.724641e+00 117 127 135
-1.319398e-01 -3.156526e-01 -2.664915e+00 26 25 40
1.341132e+00 -3.936744e-01 -2.796234e+00 202 204 214
1.341132e+00 -3.936744e-01 -2.796234e+00 202 204 214
6.852836e-01 -3.307027e-01 -2.727754e+00 169 164 144
1.883457e-01 -3.413889e-01 -2.724558e+00 178 169 160
1.203975e+00 -3.673893e-01 -2.698249e+00 228 215 220
2.552413e-01 -3.240020e-01 -2.645394e+00 200 200 200
-7.905484e-02 -3.744974e-01 -2.719481e+00 139 135 117
9.132048e-01 -3.414854e-01 -2.658556e+00 66 66 69
3.624423e-01 -3.182820e-01 -2.605107e+00 128 134 137
2.563825e-01 -3.410341e-01 -2.644018e+00 102 97 91
1.209166e+00 -4.016669e-01 -2.704684e+00 208 199 205
1.208242e+00 -4.041125e-01 -2.705176e+00 198 188 189
5.909198e-01 -3.807504e-01 -2.739953e+00 158 157 162
1.203912e+00 -4.084755e-01 -2.705344e+00 217 206 203
1.203912e+00 -4.084755e-01 -2.705344e+00 217 206 203
1.477248e-01 -3.908054e-01 -2.722342e+00 176 161 154
8.446867e-02 -3.664112e-01 -2.622823e+00 202 207 212
1.159330e+00 -4.568206e-01 -2.785383e+00 190 171 177
4.294163e-01 -4.102737e-01 -2.709750e+00 163 178 183
4.282581e-01 -4.139960e-01 -2.711601e+00 40 50 60
4.282581e-01 -4.139960e-01 -2.711601e+00 40 50 60
4.376237e-01 -4.279020e-01 -2.714221e+00 39 47 60
4.376237e-01 -4.279020e-01 -2.714221e+00 39 47 60
4.796814e-01 -4.497691e-01 -2.720949e+00 140 145 149
5.022885e-01 -4.734085e-01 -2.748389e+00 171 172 144
3.490945e-01 -4.648081e-01 -2.707931e+00 183 181 182
5.013863e-01 -4.851088e-01 -2.752838e+00 164 161 131
-1.464139e-01 -4.343238e-01 -2.508857e+00 201 210 196
4.144622e-01 -4.978938e-01 -2.709739e+00 213 210 215
7.549797e-02 -5.652851e-01 -2.703486e+00 167 171 157
4.023319e-01 -5.395712e-01 -2.706623e+00 31 31 20
3.004358e-01 -5.689787e-01 -2.723705e+00 115 111 93
1.113722e-01 -5.803779e-01 -2.705821e+00 185 180 177
4.098970e-01 -5.361408e-01 -2.657182e+00 91 84 91
3.698058e-01 -5.634369e-01 -2.685985e+00 87 78 62
3.372149e-01 -5.858773e-01 -2.716945e+00 61 55 58
3.717255e-01 -5.631566e-01 -2.683201e+00 208 200 173
3.664760e-01 -5.663694e-01 -2.684570e+00 77 65 50
1.935130e-01 -5.793170e-01 -2.676203e+00 108 101 99
3.565394e-01 -5.739285e-01 -2.684316e+00 90 80 68
1.490782e-01 -6.134047e-01 -2.704868e+00 248 241 241
9.596622e-01 -6.287203e-01 -2.722230e+00 154 192 195
6.118581e-01 -6.601839e-01 -2.717515e+00 183 191 161
9.938868e-01 4.988525e-01 -2.806059e+00 161 200 221
8.398034e-01 4.911159e-01 -2.819583e+00 207 186 179
8.378125e-01 4.918442e-01 -2.825175e+00 97 78 66
8.340115e-01 4.900716e-01 -2.822395e+00 184 163 164
7.734561e-01 4.396027e-01 -2.740814e+00 236 232 243
7.734561e-01 4.396027e-01 -2.740814e+00 236 232 243
3.561025e-01 4.414037e-01 -2.683282e+00 193 173 171
7.095205e-01 4.181724e-01 -2.710201e+00 190 189 162
7.698209e-01 4.324076e-01 -2.747986e+00 40 44 69
8.701013e-01 4.791781e-01 -2.863347e+00 217 203 164
8.895009e-01 4.762804e-01 -2.872906e+00 43 37 44
7.288598e-01 4.000027e-01 -2.709149e+00 120 115 103
7.288598e-01 4.000027e-01 -2.709149e+00 120 115 103
8.634402e-01 4.662409e-01 -2.868001e+00 176 168 159
1.023491e+00 4.560677e-01 -2.811264e+00 143 149 121
9.008954e-01 4.626518e-01 -2.868217e+00 202 186 195
9.026470e-01 4.609279e-01 -2.870497e+00 66 49 72
3.749969e-01 4.087685e-01 -2.698313e+00 137 133 150
9.427384e-01 4.478938e-01 -2.831324e+00 252 250 254
9.427384e-01 4.478938e-01 -2.831324e+00 252 250 254
8.512615e-01 4.533245e-01 -2.862618e+00 169 174 151
7.781993e-01 4.067962e-01 -2.759093e+00 29 37 50
9.472845e-01 4.437953e-01 -2.827726e+00 88 84 99
9.467090e-01 4.407144e-01 -2.836568e+00 248 249 250
9.919402e-01 4.392399e-01 -2.830215e+00 153 163 101
8.664358e-01 4.396553e-01 -2.864590e+00 176 178 163
1.525302e-01 4.574579e-01 -2.779566e+00 185 181 179
4.373234e-01 4.004901e-01 -2.773600e+00 201 190 196
4.314749e-01 4.005090e-01 -2.773149e+00 182 183 182
4.333647e-01 3.974299e-01 -2.772257e+00 43 42 49
1.372639e-01 4.490249e-01 -2.779010e+00 155 149 151
1.066463e+00 4.257293e-01 -2.858168e+00 120 128 106
9.227370e-01 4.138901e-01 -2.871393e+00 138 131 125
3.141606e-01 4.043508e-01 -2.786298e+00 254 254 254
1.044480e-01 4.337466e-01 -2.772177e+00 158 154 153
6.377201e-01 3.592564e-01 -2.764176e+00 244 242 236
9.488878e-01 3.933083e-01 -2.854168e+00 65 57 48
6.380103e-02 4.172556e-01 -2.767031e+00 168 162 163
5.921306e-01 3.191116e-01 -2.703770e+00 129 128 133
5.921306e-01 3.191116e-01 -2.703770e+00 129 128 133
1.076683e+00 3.968774e-01 -2.888130e+00 187 179 156
1.818531e-01 3.895904e-01 -2.770859e+00 156 155 145
8.640402e-01 3.664297e-01 -2.852085e+00 40 43 52
4.071775e-01 3.452659e-01 -2.752837e+00 136 140 132
4.176779e-01 3.356777e-01 -2.762959e+00 146 149 137
9.163189e-01 3.459370e-01 -2.836774e+00 173 159 122
1.052545e+00 3.618127e-01 -2.873327e+00 191 182 153
7.963372e-02 3.734907e-01 -2.757658e+00 175 173 165
2.209117e-01 3.454059e-01 -2.759376e+00 133 160 190
2.267319e-01 3.349690e-01 -2.756143e+00 110 152 199
3.917686e-01 3.135761e-01 -2.791219e+00 197 187 196
1.027414e+00 3.252272e-01 -2.858211e+00 184 178 146
1.022154e+00 3.179393e-01 -2.856537e+00 185 174 147
3.379984e-01 3.016143e-01 -2.790689e+00 235 229 234
2.851148e-01 3.035202e-01 -2.775420e+00 213 220 228
1.189827e+00 2.915182e-01 -2.777322e+00 184 179 175
1.090652e-01 3.076543e-01 -2.750540e+00 157 154 150
5.440984e-01 2.337523e-01 -2.678349e+00 180 176 175
6.306681e-01 2.293900e-01 -2.693857e+00 238 241 237
1.041070e+00 2.675276e-01 -2.829158e+00 253 254 255
9.409321e-01 2.568370e-01 -2.824304e+00 182 165 137
8.453044e-01 2.447528e-01 -2.807210e+00 70 63 34
2.327458e-01 2.635452e-01 -2.782935e+00 174 169 150
1.029555e+00 2.505108e-01 -2.843717e+00 240 224 209
4.291037e-01 2.353160e-01 -2.777464e+00 207 203 206
6.666037e-01 1.688571e-01 -2.620924e+00 187 170 152
3.569821e-01 2.160340e-01 -2.778666e+00 77 88 96
9.842308e-01 2.082223e-01 -2.832026e+00 147 142 139
6.732449e-01 1.629685e-01 -2.619807e+00 179 168 150
-6.148697e-02 2.446845e-01 -2.596255e+00 148 148 150
8.859230e-01 1.879781e-01 -2.803507e+00 184 175 146
6.504479e-01 1.511657e-01 -2.609518e+00 173 160 143
6.762775e-01 1.416779e-01 -2.610730e+00 215 202 185
9.610784e-01 1.761537e-01 -2.819292e+00 186 180 174
9.688234e-01 1.606669e-01 -2.820089e+00 190 181 171
8.235739e-01 1.292690e-01 -2.802675e+00 187 180 171
-5.926459e-02 1.678921e-01 -2.589156e+00 159 157 160
-5.926459e-02 1.678921e-01 -2.589156e+00 159 157 160
9.809161e-01 1.141772e-01 -2.804267e+00 151 147 110
-1.331316e-01 1.678863e-01 -2.586215e+00 38 41 49
-1.278920e-02 1.479766e-01 -2.585373e+00 175 173 174
1.061526e+00 1.114098e-01 -2.825678e+00 156 150 122
6.231480e-03 1.395770e-01 -2.583193e+00 132 130 134
7.320000e-01 8.381483e-02 -2.749617e+00 201 197 189
1.151554e+00 8.955059e-02 -2.757293e+00 206 206 207
-1.055647e-01 1.326114e-01 -2.572557e+00 135 123 118
-1.749182e-01 1.350633e-01 -2.614337e+00 36 32 28
-6.418335e-01 1.934739e-01 -2.790555e+00 74 73 84
9.427182e-01 5.873005e-02 -2.802142e+00 245 238 229
1.014789e+00 5.790122e-02 -2.807501e+00 162 148 121
-6.406792e-01 1.813144e-01 -2.782832e+00 49 50 60
8.645000e-01 4.914519e-02 -2.789306e+00 175 178 174
9.449755e-01 4.731434e-02 -2.798715e+00 63 64 50
9.419677e-01 4.576330e-02 -2.805664e+00 187 189 169
-6.304954e-01 1.673151e-01 -2.781454e+00 64 73 90
-3.533811e-01 1.244492e-01 -2.672762e+00 179 180 172
-3.541274e-01 1.214347e-01 -2.676272e+00 128 129 127
-3.808308e-01 1.229716e-01 -2.682328e+00 187 179 181
1.079029e+00 3.316766e-02 -2.816468e+00 202 191 151
1.138335e+00 3.522415e-02 -2.811612e+00 209 208 200
1.080517e+00 3.253293e-02 -2.815119e+00 199 183 118
-5.418060e-02 5.812186e-02 -2.537054e+00 150 142 152
-5.347508e-02 5.816238e-02 -2.536131e+00 150 142 152
-5.185530e-01 8.677699e-02 -2.717974e+00 176 173 185
9.206633e-01 -1.120573e-02 -2.791602e+00 151 152 147
1.110405e+00 -4.354862e-02 -2.804162e+00 194 188 169
1.110405e+00 -4.354862e-02 -2.804162e+00 194 188 169
4.834800e-02 -5.079143e-03 -2.597335e+00 202 213 208
4.999567e-02 -1.262382e-02 -2.626897e+00 201 197 197
-4.730362e-01 1.846493e-02 -2.696608e+00 184 163 178
1.367363e-01 -2.089187e-02 -2.618671e+00 164 180 188
1.126609e+00 -5.939654e-02 -2.808634e+00 150 146 119
1.126609e+00 -5.939654e-02 -2.808634e+00 150 146 119
1.899323e-02 -2.270138e-02 -2.583109e+00 15 9 17
1.184871e+00 -7.933590e-02 -2.815025e+00 215 204 202
8.230813e-01 -6.579507e-02 -2.649855e+00 171 172 185
1.203495e+00 -7.529825e-02 -2.732589e+00 190 160 169
1.167651e+00 -9.365029e-02 -2.812759e+00 186 180 165
-2.709515e-03 -4.486528e-02 -2.577779e+00 162 141 146
9.269103e-01 -1.018383e-01 -2.732729e+00 71 79 58
1.139220e+00 -1.104481e-01 -2.784768e+00 220 211 204
1.225375e+00 -1.133360e-01 -2.761115e+00 204 163 119
1.254082e+00 -1.197378e-01 -2.751967e+00 140 137 83
6.985162e-02 -7.154611e-02 -2.582792e+00 29 19 25
7.818241e-01 -9.733985e-02 -2.562127e+00 176 178 191
7.980424e-01 -1.091328e-01 -2.562648e+00 190 192 204
1.166488e+00 -1.517399e-01 -2.773198e+00 140 141 117
1.223919e+00 -1.510597e-01 -2.759141e+00 186 185 193
2.143322e-01 -1.162437e-01 -2.631781e+00 152 168 183
1.247208e+00 -1.630002e-01 -2.758279e+00 168 152 118
-2.102821e-02 -1.307160e-01 -2.713252e+00 8 5 12
1.032597e+00 -1.680835e-01 -2.770609e+00 191 176 146
1.032308e+00 -1.710399e-01 -2.769151e+00 118 104 89
1.032308e+00 -1.710399e-01 -2.769151e+00 118 104 89
6.006351e-01 -1.653953e-01 -2.740944e+00 73 68 63
-2.845728e-01 -1.621193e-01 -2.748055e+00 113 113 119
-2.845728e-01 -1.621193e-01 -2.748055e+00 113 113 119
-8.304915e-02 -1.555668e-01 -2.703426e+00 67 56 73
1.143835e+00 -1.956182e-01 -2.764969e+00 118 116 96
7.964257e-02 -1.464567e-01 -2.629260e+00 28 29 40
1.145069e+00 -2.002375e-01 -2.761933e+00 85 83 73
-9.934308e-02 -1.643962e-01 -2.699405e+00 62 67 81
1.016560e+00 -2.002310e-01 -2.748701e+00 160 161 170
1.441921e+00 -2.533896e-01 -2.871065e+00 112 102 100
2.376237e-01 -1.680548e-01 -2.634740e+00 19 12 23
1.289391e+00 -2.357713e-01 -2.770128e+00 215 206 218
1.015344e+00 -2.213296e-01 -2.760883e+00 192 168 169
5.680480e-02 -1.756678e-01 -2.628215e+00 57 53 71
1.443874e+00 -2.693240e-01 -2.863667e+00 102 88 110
1.446328e+00 -2.731043e-01 -2.861887e+00 184 176 163
1.069096e+00 -2.459854e-01 -2.772612e+00 188 185 174
2.011359e-01 -2.004240e-01 -2.632125e+00 148 147 135
1.417944e+00 -3.100932e-01 -2.850771e+00 227 213 223
8.763756e-01 -2.526452e-01 -2.743825e+00 185 183 169
1.428262e+00 -3.115709e-01 -2.852466e+00 176 170 150
1.109786e-01 -2.279563e-01 -2.665027e+00 190 186 183
-2.075566e-01 -2.442771e-01 -2.649273e+00 45 38 69
1.104575e+00 -2.881085e-01 -2.778042e+00 92 84 76
-2.022902e-01 -2.445510e-01 -2.647555e+00 181 176 197
1.412518e+00 -3.421111e-01 -2.840235e+00 191 186 167
7.731667e-01 -2.826841e-01 -2.747587e+00 58 53 43
3.136386e-01 -2.463327e-01 -2.643151e+00 135 111 115
8.550095e-01 -2.916997e-01 -2.730779e+00 111 120 96
8.550095e-01 -2.916997e-01 -2.730779e+00 111 120 96
1.124446e+00 -3.232824e-01 -2.780631e+00 42 42 42
1.199715e+00 -3.157928e-01 -2.733474e+00 175 175 170
1.406308e+00 -3.682566e-01 -2.843684e+00 190 173 160
5.881368e-02 -2.787674e-01 -2.660303e+00 202 198 197
8.785199e-01 -3.090146e-01 -2.733959e+00 141 137 126
1.412200e+00 -3.803157e-01 -2.830117e+00 193 164 162
3.335815e-01 -2.799808e-01 -2.654157e+00 139 129 119
4.696382e-02 -2.938416e-01 -2.656157e+00 193 189 188
-1.443624e-01 -3.043956e-01 -2.652253e+00 35 33 50
3.564378e-01 -2.849085e-01 -2.654958e+00 195 186 175
4.637306e-02 -2.971563e-01 -2.655567e+00 158 152 155
4.152752e-02 -2.987527e-01 -2.657289e+00 191 183 193
1.238719e+00 -3.445482e-01 -2.714440e+00 201 212 216
1.238719e+00 -3.445482e-01 -2.714440e+00 201 212 216
2.869427e-01 -2.875823e-01 -2.647921e+00 60 55 61
7.061749e-01 -3.180621e-01 -2.732162e+00 173 172 154
-1.290231e-01 -3.149276e-01 -2.643407e+00 29 27 59
6.292621e-02 -3.093949e-01 -2.651716e+00 111 93 92
-9.216202e-02 -3.524614e-01 -2.723072e+00 128 129 111
1.244729e+00 -3.667927e-01 -2.711598e+00 182 192 194
5.548871e-01 -3.437673e-01 -2.736756e+00 153 156 161
3.045652e-01 -3.229651e-01 -2.649205e+00 213 208 204
1.187327e+00 -4.013962e-01 -2.699827e+00 189 169 166
1.187327e+00 -4.013962e-01 -2.699827e+00 189 169 166
1.071903e-01 -4.144464e-01 -2.722904e+00 179 167 159
8.490893e-01 -3.821345e-01 -2.627990e+00 210 208 204
6.158927e-01 -4.488631e-01 -2.735568e+00 130 130 132
6.158927e-01 -4.488631e-01 -2.735568e+00 130 130 132
4.935313e-01 -4.467563e-01 -2.720284e+00 198 205 199
4.304696e-01 -4.487427e-01 -2.709428e+00 155 167 165
4.304696e-01 -4.487427e-01 -2.709428e+00 155 167 165
1.101493e+00 -4.890282e-01 -2.714502e+00 35 39 58
4.329693e-01 -4.655280e-01 -2.706039e+00 181 181 179
4.860552e-01 -4.903934e-01 -2.746665e+00 164 158 141
3.575336e-01 -4.753818e-01 -2.707538e+00 180 178 179
5.087340e-01 -4.964943e-01 -2.747704e+00 26 30 33
1.120410e-01 -5.328258e-01 -2.710428e+00 35 38 53
6.377541e-01 -5.304086e-01 -2.746489e+00 147 146 151
9.354994e-01 -5.461319e-01 -2.735502e+00 173 170 163
9.200431e-01 -5.737294e-01 -2.760575e+00 60 56 52
9.235254e-01 -5.750015e-01 -2.761685e+00 161 161 149
9.234734e-01 -5.807466e-01 -2.759230e+00 57 55 61
9.585643e-01 -5.730139e-01 -2.736966e+00 184 194 198
3.010785e-01 -5.715905e-01 -2.723726e+00 33 28 26
3.010785e-01 -5.715905e-01 -2.723726e+00 33 28 26
2.016360e-01 -5.534034e-01 -2.674756e+00 224 181 110
3.372926e-01 -5.744713e-01 -2.726870e+00 170 169 147
3.903801e-01 -5.487153e-01 -2.689356e+00 39 37 26
9.675204e-01 -6.116483e-01 -2.732007e+00 174 184 191
4.466461e-01 -5.207282e-01 -2.621599e+00 160 146 138
8.387482e-01 -6.173154e-01 -2.741215e+00 35 39 31
1.591233e-01 -6.109723e-01 -2.704010e+00 255 217 229
3.426761e-01 -5.823116e-01 -2.680326e+00 74 63 58
2.184349e-01 -5.994949e-01 -2.678052e+00 61 38 15
6.707254e-01 -6.556507e-01 -2.733649e+00 68 75 91
7.714772e-01 -6.458464e-01 -2.703404e+00 168 166 147
4.948099e-01 -5.910975e-01 -2.627549e+00 156 157 159
4.719541e-01 -5.931003e-01 -2.626493e+00 139 140 144
2.792881e-01 -6.613742e-01 -2.665360e+00 31 29 49
8.187840e-01 5.060168e-01 -2.851498e+00 50 58 74
4.276526e-01 4.663453e-01 -2.767015e+00 96 98 110
6.727813e-01 4.059368e-01 -2.677831e+00 55 64 65
4.354472e-01 4.339748e-01 -2.792040e+00 30 33 40
1.070857e+00 4.468931e-01 -2.822211e+00 108 116 93
1.019826e+00 4.383844e-01 -2.817262e+00 31 38 21
4.466107e-01 4.161720e-01 -2.779160e+00 189 173 179
9.049465e-01 4.320161e-01 -2.867270e+00 156 151 144
8.861882e-01 4.265230e-01 -2.865382e+00 158 151 143
8.861882e-01 4.265230e-01 -2.865382e+00 158 151 143
4.980285e-02 4.482258e-01 -2.771499e+00 175 171 169
5.383163e-02 4.415890e-01 -2.769497e+00 177 173 169
3.838550e-02 4.291943e-01 -2.767521e+00 178 172 172
1.527214e-01 3.922049e-01 -2.766768e+00 179 175 174
1.527214e-01 3.922049e-01 -2.766768e+00 179 175 174
4.788041e-01 3.294525e-01 -2.724042e+00 75 48 72
1.666115e-01 3.801520e-01 -2.762021e+00 176 173 168
9.132823e-01 3.479045e-01 -2.836817e+00 70 63 57
1.055996e+00 3.677164e-01 -2.873423e+00 184 172 149
9.002288e-01 3.393642e-01 -2.831722e+00 50 47 31
8.548499e-02 3.772311e-01 -2.758269e+00 107 105 100
1.055510e+00 3.436548e-01 -2.865920e+00 184 176 165
1.364175e-01 3.436650e-01 -2.761692e+00 149 148 145
1.043665e+00 3.077117e-01 -2.798675e+00 207 166 165
1.035485e+00 3.216223e-01 -2.859136e+00 208 194 182
8.936552e-01 2.976041e-01 -2.824507e+00 182 165 137
6.868258e-01 2.739812e-01 -2.752602e+00 254 252 246
6.868258e-01 2.739812e-01 -2.752602e+00 254 252 246
8.647285e-01 2.941768e-01 -2.819448e+00 65 59 46
1.042161e+00 2.955829e-01 -2.798329e+00 194 154 131
4.864415e-01 2.512912e-01 -2.671723e+00 141 141 141
3.232154e-01 2.965302e-01 -2.790020e+00 70 71 82
3.232154e-01 2.965302e-01 -2.790020e+00 70 71 82
8.475770e-01 2.776775e-01 -2.813587e+00 155 141 126
4.672045e-01 2.485066e-01 -2.664265e+00 133 133 135
8.837779e-01 2.801626e-01 -2.819638e+00 179 163 139
1.002321e+00 2.909910e-01 -2.844328e+00 183 174 165
3.209359e-01 2.922164e-01 -2.788593e+00 173 170 152
3.512689e-01 2.812322e-01 -2.797018e+00 196 190 185
8.761050e-02 3.030591e-01 -2.746511e+00 62 62 65
5.362383e-01 2.291543e-01 -2.681742e+00 66 87 84
5.294865e-01 2.256737e-01 -2.674652e+00 125 119 125
4.056886e-01 2.558858e-01 -2.777255e+00 124 126 126
7.418722e-01 2.479485e-01 -2.813279e+00 23 24 28
7.813485e-01 2.437373e-01 -2.814716e+00 179 172 154
8.473766e-01 2.424209e-01 -2.804327e+00 159 147 102
5.279742e-01 2.182437e-01 -2.678021e+00 181 177 178
7.755499e-01 2.334786e-01 -2.810857e+00 61 54 54
9.901917e-01 2.419308e-01 -2.836919e+00 138 131 121
1.185884e+00 2.426327e-01 -2.760326e+00 244 239 231
6.073300e-02 2.743127e-01 -2.791270e+00 170 171 163
6.991445e-02 2.665215e-01 -2.789554e+00 47 50 60
4.349938e-01 2.183442e-01 -2.773816e+00 91 93 106
4.429507e-01 2.157809e-01 -2.774502e+00 220 218 219
3.526192e-01 2.159813e-01 -2.778274e+00 90 101 103
-2.071551e-02 2.126325e-01 -2.594600e+00 127 124 119
-9.851682e-02 2.252175e-01 -2.596860e+00 45 44 76
1.940108e-01 1.839198e-01 -2.703535e+00 119 129 105
1.933810e-01 1.840851e-01 -2.704947e+00 119 129 105
1.010697e+00 1.587402e-01 -2.819694e+00 253 248 237
1.035480e+00 1.403753e-01 -2.821744e+00 243 238 243
9.903273e-01 1.249861e-01 -2.809297e+00 162 153 122
2.908984e-02 1.513586e-01 -2.699498e+00 85 95 97
-9.353036e-02 1.534763e-01 -2.584766e+00 150 145 149
-4.473975e-02 1.353126e-01 -2.582574e+00 168 167 165
1.014122e+00 7.852580e-02 -2.806838e+00 206 199 183
-6.591259e-02 1.169404e-01 -2.577478e+00 170 166 156
-4.473912e-01 1.657502e-01 -2.724947e+00 171 164 164
6.172984e-02 9.563574e-02 -2.639040e+00 28 35 47
-6.318647e-01 1.891543e-01 -2.787901e+00 47 50 62
8.180916e-01 5.411867e-02 -2.739562e+00 181 186 169
-4.538226e-02 9.644508e-02 -2.575457e+00 204 199 196
8.671958e-01 4.220294e-02 -2.789149e+00 131 127 136
8.746319e-01 4.257594e-02 -2.792979e+00 171 174 155
9.275839e-01 4.294231e-02 -2.803409e+00 181 179 165
9.282947e-01 4.116987e-02 -2.799092e+00 50 48 51
1.127914e+00 4.542681e-02 -2.819041e+00 216 212 200
9.416186e-01 2.861573e-03 -2.785314e+00 182 163 138
1.017057e+00 -1.228498e-03 -2.798723e+00 171 159 140
-4.161974e-01 7.373121e-02 -2.672169e+00 166 166 163
4.649405e-02 1.993860e-02 -2.593760e+00 54 77 107
7.332554e-01 -2.737809e-02 -2.646249e+00 175 182 175
1.114109e+00 -5.252359e-02 -2.804090e+00 192 181 159
1.142077e+00 -6.154042e-02 -2.809827e+00 170 166 137
1.186081e-01 -2.305112e-02 -2.615422e+00 182 190 210
8.085319e-01 -5.736683e-02 -2.655141e+00 194 198 186
1.490214e-01 -3.432846e-02 -2.618245e+00 67 77 111
1.170376e+00 -7.685023e-02 -2.816919e+00 205 179 165
1.153582e+00 -7.893073e-02 -2.813506e+00 90 100 100
1.183616e+00 -8.169955e-02 -2.808585e+00 172 168 169
1.146765e+00 -9.965520e-02 -2.789204e+00 185 155 150
8.623599e-01 -1.055460e-01 -2.722243e+00 34 43 67
1.313571e-01 -1.034304e-01 -2.624446e+00 40 40 58
1.313571e-01 -1.034304e-01 -2.624446e+00 40 40 58
1.049455e+00 -1.566181e-01 -2.771386e+00 205 200 191
1.646283e-01 -1.134492e-01 -2.613785e+00 29 41 53
1.185387e+00 -1.644067e-01 -2.748176e+00 245 235 224
2.541996e-01 -1.288669e-01 -2.652241e+00 192 191 189
1.798665e-01 -1.329516e-01 -2.613503e+00 168 177 197
1.106780e+00 -1.886443e-01 -2.789276e+00 47 47 48
1.119655e+00 -1.886569e-01 -2.745118e+00 128 125 132
1.011467e+00 -2.026166e-01 -2.757008e+00 223 218 205
1.454843e+00 -2.495399e-01 -2.870139e+00 108 98 115
1.063120e+00 -2.152806e-01 -2.747038e+00 248 225 241
8.514952e-01 -2.125506e-01 -2.750034e+00 161 159 133
1.031073e+00 -2.238877e-01 -2.750588e+00 166 161 165
9.981429e-01 -2.252249e-01 -2.758395e+00 160 150 121
9.981429e-01 -2.252249e-01 -2.758395e+00 160 150 121
9.648570e-01 -2.213258e-01 -2.742950e+00 62 57 42
1.442835e+00 -2.766669e-01 -2.864418e+00 96 99 114
8.729777e-01 -2.435686e-01 -2.750658e+00 126 126 102
1.997910e-01 -2.049686e-01 -2.630999e+00 41 34 26
1.262821e+00 -2.648490e-01 -2.746471e+00 204 205 187
1.265460e+00 -2.664608e-01 -2.751536e+00 204 205 187
1.109070e+00 -2.523497e-01 -2.715958e+00 185 183 186
4.857980e-01 -2.444422e-01 -2.740964e+00 158 159 169
1.423438e+00 -3.168742e-01 -2.853696e+00 125 112 135
1.404288e+00 -3.212487e-01 -2.848452e+00 129 126 106
1.418434e+00 -3.269513e-01 -2.850020e+00 121 107 140
1.099424e+00 -2.866682e-01 -2.775874e+00 187 180 157
9.094961e-01 -2.602820e-01 -2.705201e+00 224 209 186
