ply
format ascii 1.0
element face 0
property list uchar int vertex_indices
element vertex 923
property float x
property float y
property float z
property uchar diffuse_red
property uchar diffuse_green
property uchar diffuse_blue
end_header
1.038057e-01 4.499534e-01 -2.775246e+00 124 123 119
1.079764e-01 4.492113e-01 -2.778429e+00 186 183 178
1.613077e-02 4.492985e-01 -2.769532e+00 194 185 184
1.237367e-01 4.410524e-01 -2.773374e+00 182 178 175
8.398473e-02 4.309195e-01 -2.769211e+00 131 125 124
-8.450547e-01 4.665685e-01 -2.849019e+00 191 190 199
-8.264303e-01 4.342487e-01 -2.838692e+00 62 44 81
1.745585e-01 4.020200e-01 -2.767385e+00 160 156 153
-5.139689e-01 4.131877e-01 -2.725883e+00 50 45 62
5.036716e-01 4.019726e-01 -2.823825e+00 190 187 172
8.864314e-01 4.248137e-01 -2.855669e+00 167 159 156
-5.868154e-01 4.077992e-01 -2.729556e+00 195 190 194
-3.405957e-01 3.786147e-01 -2.839995e+00 119 112 110
2.321473e-01 3.741751e-01 -2.809875e+00 51 54 49
8.359693e-02 3.750162e-01 -2.756699e+00 112 110 110
-4.305831e-01 3.713748e-01 -2.840910e+00 171 152 152
-3.539708e-01 3.688781e-01 -2.838460e+00 50 42 37
8.042568e-02 3.687107e-01 -2.755298e+00 178 174 173
-3.526538e-01 3.627160e-01 -2.837727e+00 30 23 15
-4.678429e-01 3.677265e-01 -2.813612e+00 21 25 26
1.008727e-01 3.566511e-01 -2.755469e+00 195 192 187
1.166654e-01 3.544455e-01 -2.754948e+00 191 188 183
-2.297473e-01 3.366468e-01 -2.834151e+00 147 129 117
9.289508e-02 3.474360e-01 -2.751897e+00 158 155 150
1.629388e-01 3.431485e-01 -2.761286e+00 164 165 170
-5.136341e-02 3.294398e-01 -2.799793e+00 40 45 51
4.601343e-01 3.346172e-01 -2.800856e+00 125 117 111
4.600231e-01 3.346763e-01 -2.800646e+00 125 117 111
-8.585219e-01 3.223805e-01 -2.826711e+00 184 188 181
-2.680804e-01 3.127030e-01 -2.828924e+00 55 53 58
-4.603647e-01 2.973182e-01 -2.830939e+00 71 55 60
-3.261774e-01 2.895030e-01 -2.822854e+00 55 48 43
-4.759644e-01 2.841121e-01 -2.827707e+00 191 176 170
1.006085e-01 3.020048e-01 -2.744392e+00 150 141 140
-4.756060e-01 2.807132e-01 -2.827488e+00 113 94 94
4.942346e-01 3.050732e-01 -2.722843e+00 243 204 134
-2.272579e-01 2.626751e-01 -2.816302e+00 67 34 36
-2.275867e-01 2.626628e-01 -2.816536e+00 67 34 36
-2.061910e-02 2.705245e-01 -2.790734e+00 126 118 112
-5.149964e-01 2.391086e-01 -2.819110e+00 78 72 74
3.762216e-01 2.401934e-01 -2.789804e+00 101 108 116
6.990766e-01 2.653642e-01 -2.695783e+00 171 170 153
4.941012e-01 2.647709e-01 -2.675377e+00 161 162 166
3.387965e-01 2.269744e-01 -2.783025e+00 94 97 110
4.723544e-01 2.570993e-01 -2.673539e+00 145 144 149
9.304429e-01 2.155512e-01 -2.796874e+00 177 159 137
9.121171e-01 2.102307e-01 -2.800664e+00 185 170 137
9.238813e-01 2.097601e-01 -2.798656e+00 192 177 171
-6.087008e-01 1.905980e-01 -2.776909e+00 34 39 45
7.955951e-01 2.190985e-01 -2.764536e+00 137 144 132
4.560078e-01 2.068860e-01 -2.777032e+00 140 136 136
4.572675e-01 2.014924e-01 -2.778485e+00 156 153 149
8.899766e-01 1.782014e-01 -2.786772e+00 173 158 137
-5.763631e-01 1.413753e-01 -2.803740e+00 98 100 87
8.840672e-01 1.629209e-01 -2.780076e+00 59 46 40
8.840672e-01 1.629209e-01 -2.780076e+00 59 46 40
-3.258912e-01 1.620383e-01 -2.744551e+00 43 49 39
-4.367045e-01 1.591760e-01 -2.709660e+00 170 166 167
-4.568366e-01 1.422733e-01 -2.716085e+00 173 170 166
4.445247e-01 1.395268e-01 -2.778963e+00 195 191 189
-4.405654e-01 1.284580e-01 -2.713872e+00 204 200 201
4.190717e-01 1.276417e-01 -2.774600e+00 191 187 176
6.459488e-01 1.792019e-01 -2.619631e+00 170 180 189
6.687719e-01 1.849380e-01 -2.599992e+00 68 72 92
-4.925163e-01 1.126280e-01 -2.700567e+00 159 155 156
5.443632e-01 1.197355e-01 -2.748294e+00 149 123 116
-4.770150e-01 8.358042e-02 -2.706454e+00 154 151 152
3.058137e-01 9.542705e-02 -2.760391e+00 57 70 40
3.327036e-01 8.496879e-02 -2.760798e+00 37 37 9
3.401641e-01 8.455539e-02 -2.762049e+00 123 123 95
3.698989e-03 1.458105e-01 -2.586256e+00 166 166 168
3.698989e-03 1.458105e-01 -2.586256e+00 166 166 168
2.919486e-01 6.992004e-02 -2.753803e+00 40 46 32
5.330557e-01 1.065362e-01 -2.631018e+00 102 108 122
6.254165e-01 8.757798e-02 -2.641346e+00 202 190 179
-4.566477e-01 3.015799e-02 -2.688421e+00 55 45 46
4.199313e-01 1.276690e-02 -2.757925e+00 184 188 169
7.112097e-01 -1.611780e-03 -2.714323e+00 105 103 123
4.199493e-01 -4.914833e-03 -2.755846e+00 184 193 174
2.765412e-02 8.452112e-02 -2.581273e+00 131 131 129
-4.075813e-01 -8.260271e-03 -2.674888e+00 64 47 57
-1.481611e-02 7.875157e-02 -2.579054e+00 158 158 163
5.910554e-01 4.389689e-02 -2.625328e+00 201 185 172
5.199443e-01 -1.259199e-02 -2.730138e+00 187 173 159
6.999563e-01 -1.472840e-02 -2.701976e+00 248 238 249
5.718878e-02 4.828157e-02 -2.606121e+00 39 60 80
6.628586e-01 -4.815102e-02 -2.699706e+00 116 97 128
4.725505e-01 -6.908858e-02 -2.748834e+00 42 45 23
-3.917976e-02 4.804672e-02 -2.539244e+00 46 46 66
6.492944e-01 -7.520188e-02 -2.696207e+00 161 135 131
1.115389e-01 -1.304365e-02 -2.628181e+00 170 157 161
1.115389e-01 -1.304365e-02 -2.628181e+00 170 157 161
1.878117e-02 -2.337227e-02 -2.599248e+00 165 166 159
3.903063e-01 -1.212421e-01 -2.748968e+00 173 180 169
9.880760e-01 -1.825496e-01 -2.718189e+00 212 205 194
-3.566074e-01 -1.655547e-01 -2.713759e+00 176 174 186
1.056326e+00 -2.150487e-01 -2.730539e+00 255 253 248
6.346876e-01 -1.606539e-01 -2.732569e+00 237 235 222
7.038018e-01 -1.138459e-01 -2.642091e+00 162 161 186
5.006912e-02 -4.591491e-02 -2.577614e+00 246 245 218
-3.612132e-01 -1.951899e-01 -2.711824e+00 173 173 154
-3.842799e-01 -2.005491e-01 -2.709422e+00 170 172 159
2.751398e-01 -1.249047e-01 -2.660508e+00 81 57 89
-3.291033e-01 -2.099231e-01 -2.706683e+00 145 142 155
3.716080e-01 -1.976983e-01 -2.736059e+00 77 76 101
-2.381843e-01 -2.216226e-01 -2.718798e+00 178 177 150
1.596448e-01 -1.164747e-01 -2.622653e+00 202 214 226
-2.581616e-01 -2.372837e-01 -2.718096e+00 98 96 120
-3.090103e-01 -2.364661e-01 -2.699755e+00 154 152 163
1.459620e-01 -1.220951e-01 -2.617218e+00 29 41 55
2.740864e-01 -1.518493e-01 -2.649324e+00 145 134 132
2.740864e-01 -1.518493e-01 -2.649324e+00 145 134 132
1.816013e-01 -1.348891e-01 -2.621273e+00 149 165 169
1.935454e-01 -1.440071e-01 -2.621878e+00 183 190 208
2.403169e-01 -1.700738e-01 -2.644899e+00 172 170 169
-1.781223e-01 -2.148457e-01 -2.661193e+00 217 217 214
2.558290e-01 -1.740358e-01 -2.646352e+00 108 106 86
2.558290e-01 -1.740358e-01 -2.646352e+00 108 106 86
9.761388e-02 -1.561644e-01 -2.621431e+00 19 26 43
-1.347449e-01 -1.988998e-01 -2.645602e+00 139 128 142
-1.743199e-01 -2.206903e-01 -2.661147e+00 35 26 72
-2.338643e-01 -2.548751e-01 -2.688912e+00 50 57 88
-1.263901e-01 -2.043970e-01 -2.641635e+00 127 122 131
-1.347668e-01 -2.121553e-01 -2.640639e+00 179 178 183
3.435706e-01 -2.058415e-01 -2.657561e+00 111 102 117
-1.166250e-01 -2.129510e-01 -2.641980e+00 123 119 131
-3.656599e-01 -2.961650e-01 -2.685690e+00 111 105 108
1.000700e-01 -1.656945e-01 -2.605130e+00 27 37 54
1.000700e-01 -1.656945e-01 -2.605130e+00 27 37 54
3.264299e-01 -2.331522e-01 -2.649319e+00 198 157 162
-2.556571e-01 -2.802490e-01 -2.651401e+00 73 62 63
-1.785579e-01 -2.484527e-01 -2.630350e+00 192 190 191
8.420987e-03 -2.553574e-01 -2.665363e+00 237 219 200
-1.810510e-01 -2.574413e-01 -2.628724e+00 237 235 230
2.770579e-01 -2.741421e-01 -2.683418e+00 42 32 28
-3.809554e-02 -3.077103e-01 -2.706255e+00 146 136 120
3.206395e-01 -2.433406e-01 -2.646127e+00 191 190 180
3.125670e-01 -2.412116e-01 -2.644544e+00 186 152 154
3.638556e-01 -2.655717e-01 -2.650241e+00 55 37 63
2.806683e-01 -2.736350e-01 -2.639723e+00 151 127 125
3.007729e-01 -3.085871e-01 -2.642748e+00 38 34 66
2.514217e-01 -3.070655e-01 -2.631704e+00 166 136 138
2.013258e-01 8.604263e-01 -2.839992e+00 55 55 46
2.060877e-01 8.584957e-01 -2.850930e+00 54 55 40
-1.197529e-01 9.033472e-01 -2.944285e+00 197 179 165
-1.197529e-01 9.033472e-01 -2.944285e+00 197 179 165
9.610113e-02 8.530588e-01 -2.905678e+00 35 35 40
-1.861334e-01 8.592982e-01 -2.919422e+00 42 42 47
2.509349e-01 7.708343e-01 -2.790276e+00 161 157 158
2.451567e-01 7.689687e-01 -2.789288e+00 139 137 138
7.534586e-01 8.564280e-01 -2.863229e+00 168 143 136
-4.935026e-01 8.104670e-01 -2.741897e+00 103 106 97
3.797490e-01 7.720072e-01 -2.872611e+00 241 230 181
5.712451e-02 7.600496e-01 -2.888541e+00 43 42 47
1.948501e-01 7.323255e-01 -2.814551e+00 192 187 181
-1.906029e-01 7.625238e-01 -2.872079e+00 21 28 38
-1.874360e-01 7.625110e-01 -2.874460e+00 54 61 71
1.433747e-01 6.987778e-01 -2.772931e+00 153 157 186
6.229208e-02 6.313909e-01 -2.865714e+00 189 179 169
2.942939e-01 6.155065e-01 -2.865593e+00 114 104 107
4.707536e-01 6.064645e-01 -2.753495e+00 195 182 169
-6.291719e-01 6.403365e-01 -2.740213e+00 35 35 32
1.919690e-01 5.815058e-01 -2.846069e+00 69 76 84
2.563337e-01 5.381784e-01 -2.835910e+00 188 174 171
2.076063e-01 5.311246e-01 -2.831355e+00 177 177 175
6.054907e-01 5.355219e-01 -2.839868e+00 164 158 142
-5.508731e-01 5.295646e-01 -2.717241e+00 121 107 98
-5.089644e-01 5.127376e-01 -2.712733e+00 104 89 92
1.078845e-01 4.751428e-01 -2.781940e+00 199 198 194
8.339084e-01 5.219810e-01 -2.772703e+00 254 254 253
-3.973998e-01 4.894895e-01 -2.707770e+00 180 165 134
5.581105e-02 4.608499e-01 -2.780263e+00 171 166 162
6.540854e-02 4.591831e-01 -2.775816e+00 177 174 169
-4.073098e-01 4.702803e-01 -2.705291e+00 139 143 117
-4.719186e-01 4.748881e-01 -2.703975e+00 59 51 55
1.371031e-01 4.447239e-01 -2.775320e+00 156 152 151
-7.946902e-01 4.850141e-01 -2.848693e+00 187 187 193
-8.251270e-01 4.857001e-01 -2.855391e+00 179 176 185
-4.464096e-01 4.573240e-01 -2.701277e+00 197 165 166
3.238899e-02 4.223300e-01 -2.762843e+00 147 143 140
-8.124042e-01 4.507911e-01 -2.841842e+00 90 80 103
7.452281e-02 4.171236e-01 -2.765913e+00 131 126 122
-6.269997e-01 4.448947e-01 -2.738128e+00 60 47 72
-5.281767e-01 4.369122e-01 -2.733563e+00 193 185 180
-4.533424e-01 4.315607e-01 -2.727908e+00 42 35 51
1.792705e-01 4.137967e-01 -2.772622e+00 149 144 141
4.372316e-02 4.121083e-01 -2.764308e+00 176 172 169
-7.900402e-01 4.397151e-01 -2.835675e+00 71 70 74
8.499518e-02 4.103927e-01 -2.764129e+00 175 172 167
1.010626e-01 4.040414e-01 -2.768310e+00 158 154 154
1.707042e-01 4.050990e-01 -2.767816e+00 176 175 171
1.317596e-01 3.994999e-01 -2.765565e+00 172 169 164
-5.969583e-01 4.174247e-01 -2.734457e+00 198 187 201
-3.695131e-01 3.885174e-01 -2.839156e+00 41 39 44
-5.313833e-01 3.984398e-01 -2.728042e+00 48 49 75
-5.313833e-01 3.984398e-01 -2.728042e+00 48 49 75
-8.906837e-01 3.864711e-01 -2.840482e+00 73 81 100
7.375571e-02 3.621755e-01 -2.752465e+00 160 156 153
-8.410293e-01 3.611442e-01 -2.829707e+00 183 180 203
-8.185603e-01 3.551156e-01 -2.835518e+00 72 67 74
-8.185603e-01 3.551156e-01 -2.835518e+00 72 67 74
1.056996e-01 3.500978e-01 -2.752619e+00 186 182 179
7.591166e-02 3.224782e-01 -2.745472e+00 60 53 50
6.103520e-01 2.641001e-01 -2.700623e+00 180 177 172
-4.598463e-01 2.106706e-01 -2.812197e+00 17 14 27
-4.423143e-01 1.998468e-01 -2.808493e+00 141 133 122
-4.840558e-01 1.979409e-01 -2.810081e+00 63 68 43
1.969831e-01 2.213857e-01 -2.769698e+00 56 66 68
2.844064e-01 2.183513e-01 -2.777256e+00 113 124 86
4.667352e-01 2.452856e-01 -2.668822e+00 138 142 145
-5.120122e-01 1.706974e-01 -2.805111e+00 70 75 61
4.976765e-01 2.245819e-01 -2.673608e+00 162 161 166
4.474193e-01 1.915832e-01 -2.773065e+00 124 125 116
-5.492002e-01 1.479249e-01 -2.788521e+00 141 145 123
-4.271672e-01 1.722576e-01 -2.725065e+00 168 164 163
-4.207455e-01 1.723997e-01 -2.713755e+00 180 175 175
4.653024e-01 1.676530e-01 -2.770311e+00 124 119 116
6.519952e-01 1.790827e-01 -2.698632e+00 144 151 161
-3.978859e-01 1.511736e-01 -2.718077e+00 175 172 167
4.498233e-01 1.527488e-01 -2.780136e+00 195 191 190
6.192791e-01 1.562166e-01 -2.711696e+00 129 139 141
4.089619e-01 1.276834e-01 -2.772671e+00 189 181 178
5.135340e-01 1.303265e-01 -2.748306e+00 139 99 102
6.094891e-01 1.526256e-01 -2.672946e+00 150 160 170
-4.521164e-01 1.079979e-01 -2.711610e+00 153 150 157
4.985476e-01 1.172154e-01 -2.744033e+00 176 130 125
4.732508e-01 1.004125e-01 -2.777583e+00 121 119 126
-4.874357e-01 8.780073e-02 -2.696218e+00 158 147 162
5.336736e-01 1.032355e-01 -2.738969e+00 47 37 31
4.924042e-01 8.755815e-02 -2.774451e+00 90 93 86
4.924042e-01 8.755815e-02 -2.774451e+00 90 93 86
6.132754e-01 1.304916e-01 -2.644485e+00 210 209 192
3.273256e-01 8.396521e-02 -2.761481e+00 111 115 76
5.255794e-01 9.456311e-02 -2.712581e+00 161 164 159
5.613727e-01 1.231465e-01 -2.641635e+00 158 172 183
3.944871e-02 1.441109e-01 -2.588242e+00 167 163 162
-4.286533e-02 1.385833e-01 -2.586161e+00 168 168 170
8.872036e-03 1.369948e-01 -2.585993e+00 134 133 138
5.970924e-01 1.077961e-01 -2.638051e+00 216 213 208
3.381233e-01 4.207016e-02 -2.755999e+00 130 136 91
3.331166e-01 2.931269e-02 -2.753820e+00 110 109 83
3.422890e-01 2.728140e-02 -2.755403e+00 127 130 94
3.252725e-01 1.391442e-02 -2.749129e+00 27 28 17
7.225874e-01 1.444314e-02 -2.703799e+00 36 34 34
-3.749053e-01 -1.444756e-02 -2.728286e+00 36 41 46
-4.107561e-01 -1.814570e-02 -2.676286e+00 48 23 43
-2.333401e-02 5.749596e-02 -2.573717e+00 36 40 44
6.663630e-01 -4.635410e-02 -2.709077e+00 205 187 181
7.271247e-01 -2.891401e-02 -2.642662e+00 76 77 98
-2.708814e-02 5.279408e-02 -2.542419e+00 172 168 169
-3.682806e-01 -1.032216e-01 -2.727674e+00 136 134 139
6.958758e-02 6.622434e-03 -2.611762e+00 36 38 59
1.728265e-02 3.526200e-04 -2.606416e+00 55 71 95
4.572014e-01 -9.545324e-02 -2.747270e+00 155 152 108
6.201695e-01 -1.133023e-01 -2.748109e+00 93 81 88
6.072423e-01 -1.148062e-01 -2.745844e+00 162 153 131
3.937175e-01 -1.147937e-01 -2.750801e+00 193 185 172
3.937175e-01 -1.147937e-01 -2.750801e+00 193 185 172
4.624431e-01 -1.152375e-01 -2.743150e+00 44 34 16
6.452065e-01 -1.389629e-01 -2.744019e+00 178 172 149
6.601080e-01 -1.407611e-01 -2.743856e+00 218 210 195
6.236800e-01 -1.535360e-01 -2.741752e+00 161 157 136
6.372294e-01 -1.538661e-01 -2.739670e+00 223 222 187
-3.858136e-01 -1.752176e-01 -2.716431e+00 35 34 47
7.020103e-01 -1.147503e-01 -2.651493e+00 161 172 197
6.213485e-01 -1.707266e-01 -2.736280e+00 162 157 143
6.523389e-01 -1.449710e-01 -2.686157e+00 205 191 195
-3.022006e-01 -2.037402e-01 -2.724708e+00 196 192 191
-2.198531e-01 -2.009189e-01 -2.726851e+00 73 66 106
6.590138e-01 -1.515182e-01 -2.648045e+00 43 34 78
-2.223645e-01 -2.039431e-01 -2.721973e+00 36 55 58
6.587252e-01 -1.609774e-01 -2.645086e+00 237 236 229
2.445141e-01 -1.336882e-01 -2.657480e+00 148 145 142
1.079627e-01 -1.121635e-01 -2.616767e+00 129 138 140
2.833348e-01 -1.407417e-01 -2.654069e+00 237 235 223
1.672291e-01 -1.166244e-01 -2.622539e+00 35 41 69
-2.753090e-01 -2.391429e-01 -2.718091e+00 193 191 196
2.713743e-01 -1.532149e-01 -2.647481e+00 239 230 230
3.086428e-01 -2.330466e-01 -2.724343e+00 68 77 92
2.432506e-01 -1.686792e-01 -2.646884e+00 59 64 74
-2.181586e-01 -2.593069e-01 -2.677392e+00 35 32 32
-1.167155e-01 -2.286194e-01 -2.637689e+00 177 181 190
-1.740371e-01 -2.432903e-01 -2.628214e+00 211 209 210
-2.929556e-01 -2.707895e-01 -2.616799e+00 33 37 43
1.510027e-02 -2.591139e-01 -2.658500e+00 217 195 187
1.371115e-01 -2.529181e-01 -2.655969e+00 202 193 178
-3.613141e-02 -3.168403e-01 -2.703045e+00 137 124 108
1.322816e-01 -2.614003e-01 -2.654578e+00 134 125 110
2.339137e-01 -3.105033e-01 -2.703489e+00 31 35 37
-2.315461e-01 -2.880313e-01 -2.615423e+00 24 22 46
3.839704e-01 -2.853656e-01 -2.613422e+00 115 113 127
-3.147668e-01 -3.654961e-01 -2.621874e+00 162 165 170
-2.876965e-01 -3.611801e-01 -2.607928e+00 42 45 50
4.002546e-01 -3.220841e-01 -2.603860e+00 80 85 88
1.360956e-01 9.023541e-01 -2.937508e+00 178 169 163
-1.759896e-01 8.883898e-01 -2.919395e+00 17 20 26
-2.654462e-01 8.978278e-01 -2.925467e+00 33 34 36
7.548433e-01 9.336759e-01 -2.902424e+00 81 51 73
7.472329e-02 8.122733e-01 -2.855010e+00 48 49 54
-2.940621e-01 8.562351e-01 -2.884275e+00 49 50 55
2.703497e-01 7.805824e-01 -2.783745e+00 250 249 248
2.659785e-01 7.820651e-01 -2.794730e+00 245 244 241
7.338368e-01 8.601621e-01 -2.858389e+00 204 168 160
6.586137e-02 7.873365e-01 -2.889210e+00 21 19 22
6.625359e-02 7.843999e-01 -2.896698e+00 48 46 51
7.864591e-01 8.222339e-01 -2.842107e+00 70 54 84
-1.965901e-01 7.511337e-01 -2.872853e+00 21 26 38
2.678621e-01 6.795603e-01 -2.865682e+00 33 33 35
1.209814e-01 6.382668e-01 -2.862142e+00 197 190 185
2.207926e-01 6.065100e-01 -2.853827e+00 142 137 144
2.013256e-01 5.835100e-01 -2.844188e+00 179 182 187
2.013256e-01 5.835100e-01 -2.844188e+00 179 182 187
1.155659e-01 5.294452e-01 -2.797251e+00 150 146 145
-6.193900e-01 5.757275e-01 -2.766238e+00 229 190 193
-1.319641e-01 5.279127e-01 -2.844317e+00 31 39 50
2.381145e-01 5.130097e-01 -2.827203e+00 179 165 164
2.415995e-01 5.101748e-01 -2.826908e+00 208 203 197
2.415995e-01 5.101748e-01 -2.826908e+00 208 203 197
-4.211549e-01 5.156810e-01 -2.836178e+00 30 35 41
-5.616047e-01 5.277895e-01 -2.714258e+00 50 41 52
7.163930e-02 4.799590e-01 -2.781534e+00 162 162 157
-5.718538e-01 5.108296e-01 -2.712334e+00 139 171 208
-5.776428e-01 5.050864e-01 -2.711637e+00 143 123 111
3.157416e-01 4.741003e-01 -2.677710e+00 195 161 156
9.989660e-02 4.673694e-01 -2.779855e+00 141 136 133
-3.923638e-01 4.819922e-01 -2.839760e+00 15 17 29
2.488612e-02 4.638650e-01 -2.774551e+00 160 155 152
1.159033e-02 4.611247e-01 -2.774278e+00 173 168 164
1.016703e-01 4.609120e-01 -2.779095e+00 132 127 125
1.019666e-01 4.611937e-01 -2.777868e+00 132 127 125
8.159657e-03 4.526725e-01 -2.770875e+00 175 170 166
7.730665e-02 4.457853e-01 -2.771280e+00 129 124 118
1.414314e-01 4.453727e-01 -2.774582e+00 172 170 168
6.049255e-02 4.371911e-01 -2.772777e+00 166 161 158
1.080963e-01 4.281937e-01 -2.768400e+00 152 148 147
-4.627815e-01 4.485838e-01 -2.695347e+00 152 127 122
9.264583e-02 4.130726e-01 -2.767311e+00 177 174 169
-3.821207e-01 4.033411e-01 -2.842741e+00 201 185 163
1.612954e-01 3.913155e-01 -2.767814e+00 180 177 173
-7.784966e-01 4.120607e-01 -2.823073e+00 147 146 142
-8.822404e-01 4.102764e-01 -2.848468e+00 57 65 75
-3.653320e-01 3.833801e-01 -2.841056e+00 44 43 43
-3.708778e-01 3.785282e-01 -2.839284e+00 54 52 46
2.331991e-01 3.778357e-01 -2.810037e+00 160 153 150
2.331991e-01 3.778357e-01 -2.810037e+00 160 153 150
1.291474e-01 3.679683e-01 -2.757854e+00 158 154 151
-5.078530e-01 3.236023e-01 -2.821890e+00 54 61 65
-8.504847e-01 2.564916e-01 -2.817006e+00 29 34 29
6.815826e-01 2.723316e-01 -2.745991e+00 246 247 234
-3.469020e-01 2.311744e-01 -2.811845e+00 25 25 25
-2.893560e-01 2.322387e-01 -2.811006e+00 51 49 53
-2.893560e-01 2.322387e-01 -2.811006e+00 51 49 53
5.190495e-01 2.719159e-01 -2.678350e+00 193 191 193
-4.840651e-01 2.046395e-01 -2.811438e+00 180 173 156
-4.558511e-01 2.053757e-01 -2.812067e+00 38 31 38
4.644626e-01 2.577050e-01 -2.673378e+00 183 185 185
2.723900e-01 2.249445e-01 -2.777791e+00 37 39 26
-6.204303e-01 1.914091e-01 -2.777475e+00 59 59 67
-5.801061e-01 1.357281e-01 -2.802632e+00 111 113 99
-4.386677e-01 1.653669e-01 -2.723550e+00 170 169 168
6.581223e-01 1.827214e-01 -2.674702e+00 170 178 187
4.627347e-01 1.272749e-01 -2.780384e+00 204 200 199
5.034084e-01 1.337067e-01 -2.752655e+00 139 130 131
4.194176e-01 1.156062e-01 -2.773152e+00 196 192 185
8.835845e-01 4.037976e-02 -2.775151e+00 56 58 87
5.293149e-01 1.020252e-01 -2.677107e+00 166 174 185
7.968432e-02 1.219311e-01 -2.573764e+00 125 125 124
-7.689004e-03 1.007671e-01 -2.582057e+00 128 126 127
-3.353888e-03 9.429493e-02 -2.580366e+00 159 155 158
4.603186e-01 -5.986559e-02 -2.751697e+00 172 155 153
6.499561e-01 -5.433106e-02 -2.704315e+00 165 138 127
4.696642e-01 -7.262572e-02 -2.747615e+00 138 139 100
7.124265e-02 2.820898e-03 -2.613479e+00 185 174 156
5.585988e-01 -9.985708e-02 -2.749135e+00 148 113 113
9.210571e-02 -1.964789e-02 -2.630510e+00 46 40 53
6.004875e-01 -1.158036e-01 -2.745341e+00 164 157 135
7.164247e-01 -9.057516e-02 -2.658431e+00 198 164 144
1.655692e-02 -2.115442e-02 -2.599712e+00 141 151 151
7.578445e-02 -4.792080e-02 -2.625783e+00 24 27 34
6.398949e-01 -1.491710e-01 -2.740024e+00 223 223 187
1.947599e-02 -2.904937e-02 -2.589610e+00 177 204 217
1.947599e-02 -2.904937e-02 -2.589610e+00 177 204 217
3.844417e-01 -1.488812e-01 -2.744692e+00 156 156 158
1.084102e+00 -2.309570e-01 -2.739128e+00 79 76 101
2.985577e-01 -1.342104e-01 -2.722330e+00 22 27 33
3.034770e-01 -1.378092e-01 -2.725195e+00 46 50 60
1.072442e+00 -2.427945e-01 -2.742296e+00 247 245 223
6.000848e-02 -4.371784e-02 -2.572379e+00 141 135 127
-3.379841e-01 -2.132705e-01 -2.712195e+00 36 32 47
1.775595e-01 -1.121773e-01 -2.624994e+00 173 183 199
-4.527522e-02 -1.869236e-01 -2.693245e+00 53 62 71
-2.506665e-01 -2.352486e-01 -2.716885e+00 62 61 83
2.766923e-01 -1.485114e-01 -2.648212e+00 240 232 229
2.766923e-01 -1.485114e-01 -2.648212e+00 240 232 229
-7.557531e-02 -2.012001e-01 -2.658951e+00 61 59 64
-7.483746e-02 -2.010828e-01 -2.659561e+00 61 59 64
3.090598e-01 -2.449496e-01 -2.725034e+00 61 61 68
-3.762080e-01 -2.946652e-01 -2.685915e+00 124 122 124
2.317198e-01 -1.947390e-01 -2.647521e+00 74 65 75
-2.569121e-01 -2.755305e-01 -2.677779e+00 25 27 34
3.286744e-01 -2.465813e-01 -2.638066e+00 19 25 42
2.351419e-01 -3.131852e-01 -2.696219e+00 84 66 62
-7.342875e-02 -3.342509e-01 -2.696872e+00 146 156 116
3.180137e-01 -2.892960e-01 -2.648921e+00 166 161 157
-1.939818e-01 -3.235677e-01 -2.623077e+00 93 97 139
-2.723911e-01 -3.588785e-01 -2.619226e+00 58 59 98
3.358743e-01 -3.413165e-01 -2.591856e+00 25 35 39
-1.211439e-01 9.074937e-01 -2.941444e+00 47 38 33
1.183721e-01 8.801931e-01 -2.934749e+00 164 154 154
-2.716406e-01 8.794493e-01 -2.885028e+00 57 56 62
8.763574e-02 8.373169e-01 -2.914787e+00 26 25 31
1.705951e-01 7.842504e-01 -2.828070e+00 62 63 76
1.552670e-01 7.779290e-01 -2.819133e+00 57 56 64
1.403665e-01 7.482303e-01 -2.812629e+00 157 151 153
7.190134e-01 8.247211e-01 -2.862793e+00 115 107 125
3.513776e-01 7.568787e-01 -2.859733e+00 54 52 63
-2.137211e-01 7.433188e-01 -2.865282e+00 38 42 53
-2.069976e-01 7.435128e-01 -2.869887e+00 21 25 36
4.243952e-01 7.126348e-01 -2.853430e+00 174 157 131
-2.995717e-01 6.853411e-01 -2.894282e+00 23 26 33
-7.678024e-02 6.550015e-01 -2.881270e+00 49 54 65
1.791465e-01 5.510487e-01 -2.835911e+00 46 50 60
7.074339e-02 5.335475e-01 -2.793543e+00 153 149 146
1.879580e-01 5.343222e-01 -2.833294e+00 97 100 107
-1.675203e-01 5.384021e-01 -2.848684e+00 30 36 48
-1.675602e-01 5.383676e-01 -2.849082e+00 30 36 48
3.631435e-01 5.052368e-01 -2.690879e+00 252 251 246
6.844102e-02 4.934418e-01 -2.784980e+00 152 151 149
7.506374e-02 4.915582e-01 -2.785569e+00 163 159 156
-9.775466e-02 4.909659e-01 -2.835006e+00 49 52 71
-3.825929e-01 5.012018e-01 -2.833773e+00 15 18 26
-3.825929e-01 5.012018e-01 -2.833773e+00 15 18 26
-1.269303e-01 4.860690e-01 -2.834267e+00 41 49 62
-3.937834e-01 4.770275e-01 -2.836070e+00 37 41 52
7.977286e-02 4.385510e-01 -2.772118e+00 119 116 111
3.363130e-02 4.278315e-01 -2.766816e+00 172 170 171
1.457587e-01 4.194601e-01 -2.771700e+00 168 164 163
4.932855e-02 4.174732e-01 -2.762867e+00 181 177 176
8.955019e-02 3.926510e-01 -2.758910e+00 157 153 150
-5.250250e-01 3.984110e-01 -2.729184e+00 172 176 167
-6.835952e-02 3.763454e-01 -2.811374e+00 162 167 158
-5.253137e-01 3.855078e-01 -2.808407e+00 44 45 50
-8.895131e-01 3.911528e-01 -2.840878e+00 30 38 59
-5.394180e-01 3.882741e-01 -2.724896e+00 49 53 77
-4.663624e-01 3.275508e-01 -2.837049e+00 31 31 36
8.316096e-02 3.186464e-01 -2.746052e+00 159 164 167
9.027187e-01 2.804975e-01 -2.806915e+00 183 171 145
9.027187e-01 2.804975e-01 -2.806915e+00 183 171 145
-3.020729e-01 2.399232e-01 -2.807333e+00 91 20 57
9.314065e-01 2.582490e-01 -2.807868e+00 195 181 154
5.488517e-01 2.747276e-01 -2.683245e+00 190 186 185
2.946952e-01 2.392654e-01 -2.782024e+00 143 137 122
5.314285e-01 2.541018e-01 -2.681351e+00 158 158 156
-6.168999e-01 1.761917e-01 -2.771717e+00 70 75 87
4.505021e-01 1.887894e-01 -2.771161e+00 199 197 189
-5.488584e-01 1.485174e-01 -2.789572e+00 95 102 72
-5.488584e-01 1.485174e-01 -2.789572e+00 95 102 72
-6.024613e-01 1.225320e-01 -2.767413e+00 48 49 53
6.437734e-01 1.776612e-01 -2.617397e+00 173 185 194
6.185680e-01 1.612862e-01 -2.658832e+00 167 177 190
5.780774e-01 1.281843e-01 -2.731343e+00 141 151 161
4.011197e-01 1.157439e-01 -2.767927e+00 59 60 65
4.270962e-01 1.003707e-01 -2.772350e+00 184 182 174
3.528578e-01 1.014155e-01 -2.765292e+00 153 149 111
4.657304e-01 9.598802e-02 -2.775154e+00 81 89 102
-3.120671e-03 1.433361e-01 -2.586275e+00 135 136 138
-3.730953e-02 8.691560e-02 -2.580399e+00 168 167 165
-3.086319e-01 -2.204563e-02 -2.738020e+00 107 108 103
7.105671e-01 -2.849599e-03 -2.711615e+00 115 113 128
3.237130e-01 6.002589e-03 -2.715134e+00 88 97 67
-3.458071e-01 -9.619277e-02 -2.741987e+00 192 187 193
3.071497e-02 -1.008266e-02 -2.606211e+00 200 198 194
7.328255e-01 -8.214102e-02 -2.655290e+00 235 235 246
6.342004e-01 -1.510265e-01 -2.742041e+00 116 112 102
1.055875e+00 -2.079973e-01 -2.725981e+00 122 105 116
3.642345e-02 -3.957606e-02 -2.590472e+00 117 117 104
6.219933e-01 -1.624509e-01 -2.737376e+00 121 119 107
5.170262e-01 -1.127526e-01 -2.680315e+00 31 33 27
4.901985e-01 -1.564528e-01 -2.745777e+00 188 179 170
6.369555e-01 -1.784291e-01 -2.724459e+00 51 37 73
-6.048937e-02 -1.790362e-01 -2.699329e+00 39 35 50
6.452862e-01 -1.874591e-01 -2.677171e+00 54 51 77
2.784667e-01 -1.412002e-01 -2.659777e+00 203 197 181
-5.901483e-02 -1.833537e-01 -2.696683e+00 50 56 72
-5.901483e-02 -1.833537e-01 -2.696683e+00 50 56 72
-2.629878e-01 -2.276315e-01 -2.716730e+00 196 191 188
-5.697626e-02 -2.067164e-01 -2.695774e+00 34 35 41
-5.697626e-02 -2.067164e-01 -2.695774e+00 34 35 41
-2.623026e-01 -2.656061e-01 -2.698122e+00 26 24 35
-1.201944e-01 -2.012679e-01 -2.645324e+00 153 134 138
1.014446e-01 -1.629228e-01 -2.606659e+00 137 132 132
2.973107e-01 -2.559481e-01 -2.705831e+00 61 74 81
3.575524e-01 -2.149417e-01 -2.653240e+00 30 33 43
-5.364631e-03 -4.356445e-01 -2.702578e+00 27 32 37
-2.028074e-01 9.162174e-01 -2.938602e+00 14 19 25
-3.118631e-01 9.036203e-01 -2.868889e+00 56 59 62
-2.763176e-01 8.857836e-01 -2.876730e+00 63 61 71
2.534335e-01 7.980986e-01 -2.797836e+00 158 153 145
5.108431e-02 7.628330e-01 -2.806062e+00 155 119 124
3.892608e-01 7.685425e-01 -2.847776e+00 153 137 122
-1.808924e-01 7.695626e-01 -2.873066e+00 44 50 60
1.292053e-01 7.306228e-01 -2.807820e+00 158 152 149
7.780797e-01 8.198724e-01 -2.841225e+00 254 253 255
6.713078e-02 7.529038e-01 -2.898792e+00 43 44 49
3.500786e-01 7.496804e-01 -2.880666e+00 98 114 123
-2.033160e-01 7.515578e-01 -2.871401e+00 36 42 54
3.459999e-01 7.161143e-01 -2.889301e+00 37 35 37
2.358213e-01 6.361635e-01 -2.866461e+00 171 162 155
2.145932e-01 5.180276e-01 -2.827719e+00 77 92 99
3.683946e-01 5.066657e-01 -2.691278e+00 164 163 159
-3.926548e-01 5.162057e-01 -2.835763e+00 47 53 67
3.924867e-02 4.925862e-01 -2.782539e+00 158 154 153
-5.028397e-01 5.173959e-01 -2.716977e+00 127 111 114
1.185526e-01 4.781190e-01 -2.784123e+00 148 147 145
-5.175196e-01 5.064346e-01 -2.710054e+00 54 42 44
-2.907598e-01 4.766627e-01 -2.743905e+00 40 41 34
-5.602027e-01 4.790913e-01 -2.706423e+00 41 33 41
8.610659e-02 4.409581e-01 -2.772354e+00 154 151 146
8.607108e-02 4.411904e-01 -2.771282e+00 154 151 146
1.075216e-01 4.257416e-01 -2.773109e+00 154 150 149
5.242179e-02 4.000886e-01 -2.760956e+00 182 177 173
-8.780178e-01 4.233815e-01 -2.844421e+00 171 171 170
-8.762606e-01 4.185349e-01 -2.853695e+00 34 29 35
-3.996298e-01 3.763796e-01 -2.837532e+00 85 86 67
-8.899407e-01 3.838559e-01 -2.835572e+00 75 91 113
-8.437266e-01 3.663536e-01 -2.828762e+00 44 46 72
-5.045626e-01 2.868769e-01 -2.832308e+00 36 36 41
-3.158601e-01 2.765924e-01 -2.823065e+00 107 96 93
6.208005e-01 2.911691e-01 -2.710018e+00 133 133 135
5.850619e-01 2.914744e-01 -2.698189e+00 156 154 159
-3.163003e-01 2.318497e-01 -2.808347e+00 53 50 57
6.084701e-01 2.691897e-01 -2.700353e+00 137 137 137
4.867720e-01 2.547715e-01 -2.671420e+00 187 187 190
5.274328e-01 2.507797e-01 -2.680084e+00 155 155 155
-3.890341e-01 1.835054e-01 -2.801058e+00 16 17 22
-4.067598e-01 1.461470e-01 -2.717183e+00 158 154 155
-6.583996e-01 1.129558e-01 -2.748714e+00 38 25 25
6.115072e-01 1.541872e-01 -2.689978e+00 132 137 149
2.984301e-01 6.921657e-02 -2.755461e+00 84 98 63
2.984301e-01 6.921657e-02 -2.755461e+00 84 98 63
2.808753e-01 6.647448e-02 -2.751810e+00 68 77 50
4.887510e-01 6.584671e-02 -2.722534e+00 115 98 72
-3.755081e-01 -2.376955e-02 -2.726551e+00 153 158 166
1.862494e-01 -4.496733e-03 -2.753357e+00 25 30 39
5.846086e-01 4.653320e-02 -2.627761e+00 204 201 191
-3.992558e-01 -4.758960e-02 -2.722551e+00 165 162 173
7.243365e-01 -1.373484e-02 -2.686560e+00 186 176 185
4.970474e-01 -5.423324e-02 -2.729986e+00 68 78 53
4.465927e-01 -1.005097e-01 -2.752327e+00 200 169 150
-2.727822e-01 -1.431741e-01 -2.736038e+00 105 118 132
-2.727822e-01 -1.431741e-01 -2.736038e+00 105 118 132
-4.626710e-01 -2.023360e-01 -2.731210e+00 88 77 91
5.277679e-01 -1.211838e-01 -2.675337e+00 50 52 41
1.078313e-01 -1.099371e-01 -2.632531e+00 136 139 144
2.634178e-01 -1.379458e-01 -2.657196e+00 34 30 42
1.755748e-01 -1.272604e-01 -2.619545e+00 171 170 170
2.264429e-01 -1.551320e-01 -2.651537e+00 54 66 74
2.264429e-01 -1.551320e-01 -2.651537e+00 54 66 74
2.469801e-01 -1.662518e-01 -2.651703e+00 62 62 74
-2.011187e-01 -2.390739e-01 -2.687946e+00 161 153 150
-2.445669e-01 -2.617890e-01 -2.680487e+00 44 44 57
-1.634392e-01 -2.278569e-01 -2.632209e+00 91 91 95
-2.591483e-01 -2.768615e-01 -2.661602e+00 109 100 101
-2.591483e-01 -2.768615e-01 -2.661602e+00 109 100 101
-2.540947e-01 -2.810723e-01 -2.666689e+00 31 29 36
2.896227e-01 -2.625284e-01 -2.696818e+00 36 33 35
2.740216e-01 -2.720636e-01 -2.667581e+00 182 183 187
-3.071051e-01 -4.115701e-01 -2.605595e+00 57 62 76
6.937535e-01 8.700492e-01 -2.841461e+00 121 101 120
1.699594e-01 7.925014e-01 -2.829202e+00 161 153 151
1.548593e-01 7.688851e-01 -2.822094e+00 153 149 146
1.569403e-01 7.605482e-01 -2.818025e+00 63 66 77
1.469952e-01 7.530854e-01 -2.814985e+00 150 149 144
6.918942e-01 8.231102e-01 -2.890663e+00 63 60 73
6.839007e-01 8.207196e-01 -2.899053e+00 245 240 236
3.390779e-01 7.569435e-01 -2.879297e+00 30 36 37
5.673142e-02 7.493311e-01 -2.913767e+00 35 36 41
7.504221e-01 7.921775e-01 -2.835378e+00 251 251 249
1.972029e-01 7.063552e-01 -2.806164e+00 171 166 162
-3.091273e-01 6.948524e-01 -2.896316e+00 22 25 30
3.401486e-02 6.576198e-01 -2.867864e+00 60 59 73
2.460390e-01 6.329658e-01 -2.862903e+00 180 170 160
1.336934e-01 5.442905e-01 -2.805540e+00 152 139 131
-5.190927e-01 5.351886e-01 -2.717214e+00 55 46 46
-5.190927e-01 5.351886e-01 -2.717214e+00 55 46 46
3.347427e-02 4.442548e-01 -2.770821e+00 163 158 160
-5.370538e-01 4.234153e-01 -2.730805e+00 188 183 177
-2.457009e-01 3.856720e-01 -2.841178e+00 174 160 149
3.207606e-01 2.606353e-01 -2.786017e+00 188 185 180
3.207606e-01 2.606353e-01 -2.786017e+00 188 185 180
-3.669659e-01 2.106977e-01 -2.805589e+00 184 175 165
4.695555e-01 2.528278e-01 -2.671797e+00 178 176 179
-4.479409e-01 1.430277e-01 -2.718596e+00 161 157 157
4.087928e-01 1.015899e-01 -2.760723e+00 218 172 151
4.092924e-01 1.004232e-01 -2.763687e+00 218 172 151
3.373078e-01 8.422909e-02 -2.761693e+00 50 51 32
-2.967106e-01 4.905419e-02 -2.762887e+00 52 57 63
5.530004e-01 1.203552e-01 -2.634162e+00 107 123 136
6.318311e-01 1.026311e-01 -2.640048e+00 153 128 127
5.247847e-01 -4.721437e-03 -2.727909e+00 30 30 36
5.247847e-01 -4.721437e-03 -2.727909e+00 30 30 36
-3.923238e-01 -5.448658e-02 -2.721128e+00 144 146 162
-4.084927e-01 -1.118810e-01 -2.727447e+00 138 143 136
8.017056e-02 -6.067317e-03 -2.614654e+00 169 159 156
4.471050e-01 -9.893576e-02 -2.752757e+00 181 150 132
-2.796939e-01 -1.253520e-01 -2.740508e+00 199 195 192
3.189622e-01 -9.896049e-02 -2.749117e+00 28 34 46
1.192302e-01 -2.728404e-02 -2.630455e+00 231 232 232
1.217730e-01 -3.350966e-02 -2.627160e+00 44 63 93
-3.266815e-01 -2.206618e-01 -2.713395e+00 120 121 123
4.120309e-01 -2.006307e-01 -2.736735e+00 41 48 66
1.739127e-01 -1.184052e-01 -2.621073e+00 38 54 71
3.510596e-01 -2.101960e-01 -2.693282e+00 187 191 197
3.110243e-01 -2.394214e-01 -2.702274e+00 177 183 187
-2.608108e-01 -3.840668e-01 -2.618045e+00 37 40 59
3.475199e-01 -3.367963e-01 -2.587306e+00 178 172 172
-2.585255e-01 9.055213e-01 -2.898578e+00 57 52 56
2.390459e-02 8.282220e-01 -2.822636e+00 57 55 64
2.390459e-02 8.282220e-01 -2.822636e+00 57 55 64
7.349607e-01 9.024230e-01 -2.883682e+00 178 150 150
7.527060e-01 7.802778e-01 -2.857270e+00 253 247 246
3.539970e-01 5.648704e-01 -2.666258e+00 203 179 171
5.419051e-01 4.514519e-01 -2.798177e+00 203 175 165
-5.824002e-01 4.217247e-01 -2.732054e+00 218 211 207
-6.592432e-02 3.845072e-01 -2.814491e+00 44 54 66
-5.687243e-01 3.984248e-01 -2.718675e+00 99 95 99
-5.626707e-01 3.893459e-01 -2.726962e+00 169 164 165
6.948087e-02 3.648493e-01 -2.753187e+00 156 152 149
5.534268e-01 3.564656e-01 -2.714410e+00 123 120 126
-8.782087e-01 3.305892e-01 -2.822865e+00 38 38 48
-1.969357e-02 2.806795e-01 -2.789568e+00 169 161 158
5.143121e-01 2.916021e-01 -2.703026e+00 160 183 192
5.305655e-01 2.714674e-01 -2.680555e+00 151 150 155
9.403387e-01 2.433364e-01 -2.812407e+00 188 172 146
5.362055e-01 2.466293e-01 -2.680824e+00 176 174 175
-4.291511e-01 1.782549e-01 -2.722164e+00 188 184 182
-6.773014e-01 1.427608e-01 -2.736935e+00 39 25 28
3.241673e-01 2.125594e-02 -2.750956e+00 124 126 89
5.686779e-01 6.832665e-02 -2.629465e+00 164 112 124
3.012488e-01 2.727984e-02 -2.723137e+00 25 27 21
4.580719e-01 -2.056346e-02 -2.766325e+00 185 180 174
7.721858e-02 1.025746e-02 -2.613120e+00 29 33 44
-3.674149e-01 -1.335562e-01 -2.727831e+00 117 118 122
-2.168382e-01 -2.521976e-01 -2.682360e+00 56 54 63
3.254554e-01 -2.343312e-01 -2.688741e+00 188 162 163
-2.816477e-01 -3.711727e-01 -2.607022e+00 101 106 112
-1.067036e-01 -4.399225e-01 -2.694369e+00 16 17 21
1.213200e-01 7.275960e-01 -2.799119e+00 48 48 58
1.213200e-01 7.275960e-01 -2.799119e+00 48 48 58
7.519334e-01 8.137683e-01 -2.837816e+00 106 122 151
7.519334e-01 8.137683e-01 -2.837816e+00 106 122 151
1.249683e-01 6.066148e-01 -2.842798e+00 249 247 250
-1.426118e-01 5.509023e-01 -2.851935e+00 27 33 45
-4.040527e-01 4.991473e-01 -2.837223e+00 26 33 43
1.531575e-01 4.588364e-01 -2.782789e+00 170 166 165
1.362366e-01 4.501314e-01 -2.777435e+00 157 153 152
1.363538e-01 4.500204e-01 -2.778112e+00 157 153 152
2.192432e-01 4.226542e-01 -2.820265e+00 42 45 52
-7.447392e-02 3.789747e-01 -2.808886e+00 167 161 155
5.549735e-01 2.790145e-01 -2.680565e+00 150 148 154
8.986506e-01 1.917630e-01 -2.791891e+00 182 173 141
-5.970494e-01 1.651195e-01 -2.771465e+00 52 63 83
-4.766565e-01 7.466648e-02 -2.703422e+00 172 167 172
5.503334e-01 1.101052e-01 -2.622473e+00 207 197 191
6.635228e-01 -5.311615e-02 -2.691086e+00 127 98 102
6.635228e-01 -5.311615e-02 -2.691086e+00 127 98 102
1.256071e-01 -1.106324e-02 -2.641144e+00 34 31 37
6.703772e-02 -1.152861e-03 -2.610044e+00 29 32 46
6.575512e-01 -1.402061e-01 -2.654186e+00 188 164 160
1.627003e-01 -1.259062e-01 -2.623668e+00 38 45 59
9.203065e-02 -1.355038e-01 -2.625426e+00 165 175 181
-2.566862e-01 -2.765367e-01 -2.643145e+00 122 112 113
4.821209e-02 -2.971714e-01 -2.640221e+00 53 51 64
-3.412978e-01 7.357945e-01 -2.905134e+00 20 21 25
1.073917e-01 5.859840e-01 -2.833060e+00 181 176 172
-2.890107e-01 4.699007e-01 -2.734731e+00 22 23 18
-3.941946e-01 1.788696e-01 -2.733008e+00 35 30 37
-4.713729e-01 1.074031e-01 -2.717394e+00 155 150 154
4.738372e-02 1.120062e-01 -2.585217e+00 169 168 164
3.980688e-02 -1.497696e-02 -2.600127e+00 26 32 43
1.416737e-01 -3.598674e-02 -2.628195e+00 49 68 93
1.416737e-01 -3.598674e-02 -2.628195e+00 49 68 93
6.454505e-01 -1.447512e-01 -2.684858e+00 207 194 201
5.916451e-01 -1.994388e-01 -2.726935e+00 43 45 44
3.256991e-01 -3.270231e-01 -2.597799e+00 40 47 68
-4.662791e-01 3.083513e-01 -2.834530e+00 33 34 39
5.320380e-01 3.008613e-03 -2.737524e+00 33 32 37
6.775544e-01 -1.231747e-01 -2.658108e+00 154 143 143
-3.701983e-01 -2.038482e-01 -2.708519e+00 156 155 151
2.198593e-01 -1.834759e-01 -2.645973e+00 159 155 145
2.352347e-01 4.824965e-01 -2.804990e+00 52 50 53
-8.590150e-02 1.235230e-01 -2.581639e+00 26 29 40
-4.212273e-01 -5.665792e-02 -2.725792e+00 30 31 35
4.142395e-02 1.835672e-02 -2.608868e+00 51 72 99
7.119658e-01 -9.511873e-02 -2.662965e+00 204 170 155
2.792379e-01 -2.573400e-01 -2.694913e+00 32 25 29
3.644959e-01 -2.518495e-01 -2.659104e+00 188 181 174
-4.910208e-01 3.987972e-01 -2.723328e+00 31 32 36
5.346495e-01 -7.791027e-02 -2.739407e+00 173 165 154
5.013489e-01 -1.336237e-01 -2.681093e+00 41 40 28
2.904111e-01 -1.593700e-01 -2.674416e+00 177 174 178
1.732483e-01 5.471151e-01 -2.816141e+00 51 60 67
-5.353719e-01 1.678763e-01 -2.785296e+00 32 37 33
-6.409275e-01 1.378277e-01 -2.750308e+00 20 21 26
3.675808e-01 -1.787214e-01 -2.739497e+00 156 156 156
5.189980e-01 1.162128e-01 -2.739186e+00 50 49 44
-3.567091e-01 -3.510630e-02 -2.726328e+00 158 161 168
-1.306189e-04 6.644071e-02 -2.567238e+00 32 41 50
2.000319e-01 -1.205444e-01 -2.637590e+00 33 40 51
-3.789690e-01 3.171238e-01 -2.815263e+00 44 44 49
5.688651e-01 -1.135546e-01 -2.720315e+00 44 42 48
5.380473e-02 7.018757e-01 -2.849603e+00 41 42 47
-4.239399e-01 1.154902e-01 -2.711537e+00 176 172 173
3.561597e-01 -7.406981e-01 -2.608225e+00 40 37 37
1.133381e-01 -7.100680e-01 -2.622411e+00 38 37 38
1.040631e-01 -6.991531e-01 -2.621426e+00 149 139 148
1.416568e-01 -6.898979e-01 -2.620579e+00 155 154 144
-2.040656e-01 -6.477066e-01 -2.576121e+00 71 75 84
5.373598e-01 -7.775512e-01 -2.632443e+00 208 179 163
-1.929325e-01 -6.261337e-01 -2.576196e+00 166 161 158
5.465651e-01 -7.559981e-01 -2.631012e+00 191 166 152
5.711970e-01 -7.531113e-01 -2.630007e+00 58 62 53
4.186587e-01 -7.124268e-01 -2.634552e+00 29 30 35
3.597935e-01 -6.944886e-01 -2.638553e+00 91 79 74
5.741851e-01 -7.446065e-01 -2.629908e+00 147 146 158
9.471066e-02 -7.055151e-01 -2.699056e+00 55 25 28
4.895278e-01 -6.975325e-01 -2.613742e+00 51 38 50
9.676906e-02 -7.004445e-01 -2.697162e+00 199 178 179
2.743821e-01 -6.635939e-01 -2.632705e+00 77 68 76
3.277343e-01 -7.197542e-01 -2.691477e+00 88 95 112
4.656084e-01 -6.832507e-01 -2.613346e+00 160 161 160
5.938156e-02 -6.794265e-01 -2.689126e+00 218 209 202
4.976771e-01 -6.916665e-01 -2.616985e+00 165 171 166
4.072084e-02 -6.815154e-01 -2.696021e+00 169 163 172
4.142966e-01 -6.849237e-01 -2.647696e+00 153 144 147
-2.713611e-01 -5.681092e-01 -2.578836e+00 226 227 213
1.203337e-01 -6.632986e-01 -2.706100e+00 61 53 45
1.659654e-01 -6.597544e-01 -2.706840e+00 84 64 56
3.919054e-01 -6.441921e-01 -2.646920e+00 102 101 99
1.107302e-01 -6.519646e-01 -2.708966e+00 157 150 142
4.963252e-01 -6.468681e-01 -2.620103e+00 155 150 155
1.128859e-01 -6.474459e-01 -2.705701e+00 151 144 138
6.182102e-02 -6.360473e-01 -2.703988e+00 87 85 91
4.944264e-02 -6.299409e-01 -2.703892e+00 161 160 166
4.062911e-02 -6.237088e-01 -2.703656e+00 176 166 166
6.409712e-01 -6.850585e-01 -2.636757e+00 92 95 84
4.539658e-02 -6.182204e-01 -2.705076e+00 166 157 153
2.307973e-01 -6.135601e-01 -2.678352e+00 41 12 8
4.726711e-02 -6.118239e-01 -2.701869e+00 195 185 183
-1.152995e-01 -4.925274e-01 -2.549309e+00 57 52 50
4.459627e-01 -5.972449e-01 -2.612375e+00 106 97 89
4.347096e-01 -5.957009e-01 -2.613924e+00 161 153 140
5.763178e-01 -7.026204e-01 -2.705491e+00 165 153 163
1.071201e-01 -6.140236e-01 -2.708664e+00 157 151 143
2.184037e-01 -6.017498e-01 -2.680623e+00 64 38 13
2.225942e-01 -5.988680e-01 -2.678849e+00 77 26 11
2.225942e-01 -5.988680e-01 -2.678849e+00 77 26 11
-3.144694e-01 -5.238514e-01 -2.600052e+00 205 204 208
4.384084e-01 -5.816058e-01 -2.617067e+00 165 163 173
7.545776e-02 -5.935829e-01 -2.710602e+00 171 169 155
4.761598e-01 -5.882225e-01 -2.618929e+00 178 176 179
4.761696e-01 -5.881742e-01 -2.618964e+00 178 176 179
4.440257e-01 -5.747062e-01 -2.614630e+00 165 163 166
8.152387e-02 -5.875376e-01 -2.707549e+00 53 51 56
8.152387e-02 -5.875376e-01 -2.707549e+00 53 51 56
4.375670e-01 -5.720588e-01 -2.617299e+00 160 160 160
-1.012001e-01 -4.592420e-01 -2.561963e+00 16 13 19
4.902107e-01 -5.719514e-01 -2.621652e+00 149 147 145
5.020722e-01 -5.740355e-01 -2.622474e+00 165 164 163
5.677296e-01 -5.902062e-01 -2.631080e+00 48 48 53
4.171643e-01 -5.331558e-01 -2.612321e+00 165 154 159
8.711562e-01 -7.396423e-01 -2.729072e+00 190 182 181
8.711562e-01 -7.396423e-01 -2.729072e+00 190 182 181
4.817412e-01 -5.426977e-01 -2.620655e+00 90 87 92
-3.256583e-01 -4.656510e-01 -2.605651e+00 32 36 39
5.497627e-01 -5.636205e-01 -2.631400e+00 104 105 110
1.044416e+00 -7.782202e-01 -2.760577e+00 151 151 153
1.133455e+00 -7.844601e-01 -2.779904e+00 186 171 160
1.022348e+00 -7.187067e-01 -2.736060e+00 57 59 52
9.166511e-01 -6.520432e-01 -2.704989e+00 151 179 181
1.076448e+00 -7.113307e-01 -2.758620e+00 180 175 178
6.692551e-01 -5.745010e-01 -2.739562e+00 143 143 148
1.078071e+00 -7.056891e-01 -2.758592e+00 181 177 179
1.220000e+00 -7.277148e-01 -2.782981e+00 189 182 184
1.223332e+00 -7.174031e-01 -2.786557e+00 197 184 200
9.293498e-01 -5.909563e-01 -2.719898e+00 191 198 198
4.350744e-01 -4.496498e-01 -2.704905e+00 162 169 175
4.072152e-01 -4.416137e-01 -2.702558e+00 195 203 205
-2.932550e-01 -3.392538e-01 -2.638932e+00 176 176 177
1.030772e+00 -5.955896e-01 -2.705719e+00 219 191 187
4.676830e-01 -4.468582e-01 -2.713756e+00 167 168 169
9.800314e-01 -5.838346e-01 -2.724965e+00 113 135 152
6.217347e-01 -4.894154e-01 -2.734738e+00 206 205 203
1.126184e+00 -6.052138e-01 -2.698039e+00 106 103 112
1.710636e-01 -3.840720e-01 -2.702315e+00 188 192 204
-1.540385e-01 -3.176960e-01 -2.623034e+00 27 28 23
-1.764847e-01 -3.015899e-01 -2.622241e+00 131 133 140
-9.909793e-02 -3.517295e-01 -2.721060e+00 22 26 25
-3.046323e-01 -2.980617e-01 -2.632957e+00 36 40 51
-1.459927e-01 -2.942748e-01 -2.631314e+00 182 181 188
4.870404e-01 -4.037809e-01 -2.723677e+00 46 47 51
4.871935e-01 -4.040728e-01 -2.724224e+00 46 47 51
-2.062088e-01 -2.709903e-01 -2.641369e+00 153 151 155
1.811874e-01 -3.415939e-01 -2.727715e+00 187 177 176
-1.885657e-01 -2.683337e-01 -2.641541e+00 244 243 228
1.900439e-01 -3.275194e-01 -2.728936e+00 179 170 153
5.631705e-02 -2.813424e-01 -2.662059e+00 191 189 190
-4.680897e-01 -2.674173e-01 -2.721442e+00 133 129 127
8.108635e-01 -4.027494e-01 -2.648397e+00 143 131 144
8.063845e-01 -4.025819e-01 -2.653243e+00 132 134 127
-1.944901e-01 -2.406990e-01 -2.644955e+00 86 92 110
8.204212e-01 -3.969972e-01 -2.654543e+00 178 178 182
-1.902603e-01 -2.365463e-01 -2.644205e+00 88 91 103
6.109777e-01 -3.800443e-01 -2.745069e+00 175 170 174
1.859068e-01 -3.015166e-01 -2.731275e+00 180 172 164
6.262586e-01 -3.803515e-01 -2.744536e+00 193 187 184
-3.548610e-01 -2.483271e-01 -2.724459e+00 164 161 158
-3.988592e-01 -2.454729e-01 -2.728353e+00 136 136 134
-1.921135e-01 -2.280762e-01 -2.672589e+00 240 236 238
5.611051e-01 -3.507687e-01 -2.741082e+00 147 150 155
-2.911157e-01 -2.421981e-01 -2.736062e+00 198 197 195
2.097516e-01 -2.888028e-01 -2.732769e+00 160 146 133
1.041793e+00 -4.148384e-01 -2.625237e+00 134 134 134
-8.416509e-01 -2.042372e-01 -2.700650e+00 208 216 192
-3.269737e-01 -2.274913e-01 -2.719665e+00 120 126 124
1.463506e-01 -2.487229e-01 -2.664989e+00 52 46 30
-3.305827e-01 -2.279896e-01 -2.725074e+00 124 130 126
9.000601e-01 -3.896993e-01 -2.681806e+00 104 102 107
9.000601e-01 -3.896993e-01 -2.681806e+00 104 102 107
1.503022e-01 -2.409957e-01 -2.665005e+00 228 205 187
9.143808e-01 -3.805564e-01 -2.671352e+00 218 218 215
1.179820e-01 -2.279872e-01 -2.667849e+00 169 164 158
9.305931e-01 -3.681748e-01 -2.647569e+00 240 241 238
8.002925e-01 -3.288887e-01 -2.644769e+00 142 162 175
7.309453e-01 -3.227049e-01 -2.684173e+00 218 207 219
9.415195e-01 -3.577133e-01 -2.651171e+00 129 123 132
9.387920e-01 -3.510812e-01 -2.642427e+00 117 115 125
8.849859e-01 -3.305114e-01 -2.634899e+00 237 225 224
2.056253e-01 -2.051080e-01 -2.634847e+00 45 43 31
8.813328e-01 -3.297676e-01 -2.640289e+00 217 190 173
1.017134e+00 -3.581446e-01 -2.634871e+00 217 215 203
9.526762e-01 -3.405124e-01 -2.648134e+00 213 214 226
-7.086696e-01 -1.607398e-01 -2.792332e+00 143 146 131
8.909773e-01 -3.004748e-01 -2.642486e+00 156 153 126
8.933769e-01 -3.113104e-01 -2.678080e+00 162 164 152
9.180303e-01 -2.881125e-01 -2.698347e+00 253 244 242
9.230008e-01 -2.789395e-01 -2.692764e+00 156 141 147
6.160569e-01 -2.143339e-01 -2.738956e+00 165 163 161
6.060683e-01 -2.096571e-01 -2.738023e+00 153 152 148
6.061531e-01 -2.096731e-01 -2.737677e+00 153 152 148
-3.979134e-01 -6.746568e-02 -2.730929e+00 164 160 181
-6.412177e-01 -2.391739e-02 -2.724012e+00 96 101 107
6.339628e-01 -1.781494e-01 -2.741897e+00 223 213 204
9.118680e-01 -2.197040e-01 -2.728457e+00 27 20 14
6.125974e-01 -1.649935e-01 -2.744964e+00 170 162 151
6.125974e-01 -1.649935e-01 -2.744964e+00 170 162 151
6.059765e-01 -1.628955e-01 -2.745182e+00 143 140 123
6.184045e-01 -1.595861e-01 -2.748143e+00 176 170 154
6.064833e-01 -1.573510e-01 -2.745764e+00 66 66 68
6.306023e-01 -1.484428e-01 -2.750031e+00 86 77 72
6.268432e-01 -1.460074e-01 -2.750394e+00 99 90 81
6.424669e-01 -1.323008e-01 -2.754513e+00 188 175 158
6.256101e-01 -1.084999e-01 -2.754125e+00 226 218 198
-2.745758e-01 2.723437e-02 -2.766615e+00 127 127 129
5.976394e-01 -1.023349e-01 -2.754965e+00 158 152 143
6.248554e-01 -1.019577e-01 -2.753969e+00 240 227 215
6.076171e-01 -9.312599e-02 -2.760447e+00 179 162 153
6.151277e-01 -9.045158e-02 -2.761925e+00 176 163 141
6.013765e-01 -8.768311e-02 -2.757505e+00 179 166 154
-3.869143e-01 9.465612e-02 -2.670024e+00 187 188 181
6.267171e-01 -6.235247e-02 -2.757786e+00 65 51 46
-1.200482e-01 7.464341e-02 -2.594669e+00 231 216 216
-1.200482e-01 7.464341e-02 -2.594669e+00 231 216 216
6.264971e-01 -5.335072e-02 -2.765261e+00 156 148 130
6.248135e-01 -5.143468e-02 -2.765079e+00 188 183 162
6.456534e-01 -3.688381e-02 -2.764708e+00 200 185 166
6.435319e-01 -3.570983e-02 -2.770244e+00 185 178 160
7.921001e-01 -3.852822e-02 -2.588640e+00 240 231 243
-2.071447e-01 1.211348e-01 -2.616764e+00 191 158 178
-1.685743e-01 1.269628e-01 -2.617814e+00 218 210 214
-4.506492e-01 2.318157e-01 -2.819884e+00 35 38 40
7.388523e-01 3.180815e-02 -2.728142e+00 212 209 211
1.135181e+00 2.411467e-02 -2.786486e+00 100 103 115
1.139261e+00 2.824250e-02 -2.782585e+00 109 113 123
1.139343e+00 3.146149e-02 -2.794512e+00 114 117 135
8.170715e-01 5.340430e-02 -2.743286e+00 166 173 149
-4.628373e-01 2.827202e-01 -2.831392e+00 104 91 88
1.140871e+00 4.302761e-02 -2.807987e+00 211 203 201
9.426436e-01 6.069163e-02 -2.806874e+00 172 162 155
7.541505e-01 7.288246e-02 -2.736458e+00 204 200 199
4.500576e-01 1.116906e-01 -2.779278e+00 198 197 193
9.421881e-01 7.968019e-02 -2.807078e+00 227 217 215
-9.910042e-02 2.159587e-01 -2.591613e+00 210 218 223
1.166285e+00 8.169761e-02 -2.795776e+00 205 207 209
-3.346293e-01 3.004539e-01 -2.830199e+00 162 155 149
9.460689e-01 9.424176e-02 -2.795375e+00 96 85 80
-9.784282e-02 2.294857e-01 -2.593449e+00 26 40 48
5.159360e-01 1.340719e-01 -2.750347e+00 166 114 122
-8.076233e-02 2.294964e-01 -2.590981e+00 155 154 151
4.883827e-01 1.434652e-01 -2.753281e+00 182 165 167
-2.897257e-01 3.192101e-01 -2.836386e+00 169 163 150
4.243512e-01 1.672975e-01 -2.783962e+00 174 169 165
-3.475748e-01 3.568624e-01 -2.845417e+00 37 42 45
4.621027e-01 1.803108e-01 -2.778112e+00 118 117 113
-3.432296e-01 3.665436e-01 -2.843033e+00 112 110 109
4.123460e-01 1.982149e-01 -2.792223e+00 54 54 66
-3.237051e-01 3.672979e-01 -2.844077e+00 110 110 111
6.908044e-02 2.736406e-01 -2.796029e+00 177 178 158
-6.589486e-02 3.044337e-01 -2.775467e+00 231 226 221
4.480428e-01 2.202071e-01 -2.777735e+00 204 201 196
3.548835e-01 2.390821e-01 -2.789247e+00 211 212 212
1.337097e-01 2.818294e-01 -2.777492e+00 157 162 159
-3.036486e-01 4.066052e-01 -2.848713e+00 115 109 102
6.800937e-01 2.043317e-01 -2.774314e+00 127 114 107
-3.406460e-01 4.200137e-01 -2.848667e+00 158 156 143
-3.406460e-01 4.200137e-01 -2.848667e+00 158 156 143
1.456020e-01 2.852403e-01 -2.782916e+00 148 139 122
-5.046503e-01 4.632033e-01 -2.711689e+00 168 155 147
1.123587e-01 2.912751e-01 -2.749136e+00 177 176 179
1.123587e-01 2.912751e-01 -2.749136e+00 177 176 179
9.275682e-01 2.082557e-01 -2.798757e+00 185 176 118
4.186018e-01 2.465197e-01 -2.785648e+00 200 201 195
2.267239e-01 2.817866e-01 -2.790712e+00 39 41 31
