ply
format ascii 1.0
element face 0
property list uchar int vertex_indices
element vertex 926
property float x
property float y
property float z
property uchar diffuse_red
property uchar diffuse_green
property uchar diffuse_blue
end_header
6.978654e-01 8.643861e-01 -2.837667e+00 240 224 242
1.458634e-01 7.823276e-01 -2.809789e+00 205 202 207
-5.301055e-01 8.318563e-01 -2.738166e+00 189 183 184
1.393579e-01 7.576719e-01 -2.794471e+00 237 230 227
1.393579e-01 7.576719e-01 -2.794471e+00 237 230 227
7.178000e-01 8.390886e-01 -2.838449e+00 205 179 164
2.012149e-01 7.303315e-01 -2.810823e+00 185 186 178
4.004456e-01 7.289297e-01 -2.871398e+00 109 93 70
3.201572e-01 6.971554e-01 -2.886044e+00 42 42 43
5.232543e-01 6.981424e-01 -2.873018e+00 71 64 58
6.599452e-02 6.400241e-01 -2.865400e+00 195 183 169
2.236467e-01 6.246382e-01 -2.861414e+00 190 184 180
2.236467e-01 6.246382e-01 -2.861414e+00 190 184 180
3.487557e-01 5.635088e-01 -2.660900e+00 244 223 221
8.108579e-02 5.393520e-01 -2.794980e+00 149 145 142
1.993274e-01 5.382995e-01 -2.834065e+00 178 184 182
2.694143e-01 5.300389e-01 -2.784802e+00 104 106 106
-1.881362e-01 5.365720e-01 -2.847852e+00 83 88 92
-6.665707e-02 5.286064e-01 -2.843118e+00 135 138 143
8.001429e-02 5.227055e-01 -2.790773e+00 172 169 164
2.040702e-01 5.242364e-01 -2.829893e+00 81 90 95
2.198585e-01 5.154946e-01 -2.827215e+00 104 108 109
9.335000e-02 4.833552e-01 -2.781308e+00 119 117 116
-4.035149e-01 4.933020e-01 -2.706702e+00 173 159 148
8.342478e-01 5.216262e-01 -2.764504e+00 198 197 203
-1.273591e-01 4.725649e-01 -2.828893e+00 151 148 151
9.882408e-02 4.577288e-01 -2.775431e+00 185 182 179
9.902364e-02 4.417525e-01 -2.770698e+00 173 169 170
-8.388575e-01 4.775168e-01 -2.850091e+00 60 58 81
7.645817e-02 4.280157e-01 -2.768990e+00 125 118 116
-8.555661e-01 4.669253e-01 -2.849704e+00 73 70 81
-6.331229e-01 4.473949e-01 -2.736097e+00 213 207 209
-7.939885e-01 4.448087e-01 -2.834848e+00 190 189 191
7.923698e-02 4.135584e-01 -2.764438e+00 179 175 172
1.767872e-01 4.135114e-01 -2.771221e+00 177 173 170
-8.393309e-01 4.444741e-01 -2.841353e+00 197 197 199
-8.406089e-01 4.414784e-01 -2.841352e+00 90 88 100
-8.263664e-01 4.382012e-01 -2.837775e+00 76 62 84
-6.364813e-01 4.276184e-01 -2.733851e+00 207 192 202
7.687926e-02 4.011489e-01 -2.763086e+00 190 186 185
-5.444213e-01 4.156826e-01 -2.725156e+00 168 161 153
-5.994586e-01 4.179509e-01 -2.729392e+00 42 29 53
8.773355e-01 4.271339e-01 -2.849118e+00 166 162 151
2.584466e-01 3.917848e-01 -2.813331e+00 142 133 125
9.089620e-02 3.783914e-01 -2.757403e+00 104 103 99
9.089620e-02 3.783914e-01 -2.757403e+00 104 103 99
-3.844487e-01 3.712514e-01 -2.839442e+00 62 51 56
-3.806007e-01 3.677858e-01 -2.839442e+00 72 61 57
1.056178e-01 3.716449e-01 -2.758014e+00 153 149 146
9.327012e-02 3.701433e-01 -2.755774e+00 172 171 169
-4.241778e-01 3.647051e-01 -2.839698e+00 167 152 149
8.355018e-02 3.678549e-01 -2.755610e+00 174 170 170
-4.280704e-01 3.624669e-01 -2.840138e+00 165 151 140
-4.364719e-01 3.582841e-01 -2.839651e+00 183 166 154
-4.475166e-01 3.502015e-01 -2.839694e+00 167 157 154
-4.353330e-01 3.396228e-01 -2.836642e+00 29 24 32
-4.975368e-01 3.384624e-01 -2.821344e+00 21 29 24
-8.859929e-01 3.481612e-01 -2.828536e+00 45 40 52
-8.742895e-01 3.389556e-01 -2.828744e+00 175 174 190
-8.737952e-01 3.331949e-01 -2.824673e+00 51 48 69
1.105462e-01 3.214420e-01 -2.750660e+00 185 182 179
8.652508e-02 3.130266e-01 -2.745599e+00 188 196 202
4.299033e-01 3.075959e-01 -2.791229e+00 37 28 25
4.299033e-01 3.075959e-01 -2.791229e+00 37 28 25
-4.779622e-01 2.893082e-01 -2.828332e+00 59 50 46
-3.196113e-01 2.864190e-01 -2.823060e+00 56 56 55
-4.932199e-02 2.626000e-01 -2.785844e+00 181 173 161
-5.227920e-01 2.452459e-01 -2.819818e+00 53 52 67
-4.937224e-01 2.353780e-01 -2.818296e+00 166 158 148
-5.236281e-01 2.338908e-01 -2.819301e+00 101 99 102
2.894485e-01 2.536047e-01 -2.783930e+00 199 196 188
3.698923e-01 2.504988e-01 -2.789401e+00 203 204 209
-5.140408e-01 2.220229e-01 -2.816547e+00 43 42 42
2.886491e-01 2.421197e-01 -2.784284e+00 145 142 125
-3.371059e-01 2.202291e-01 -2.806656e+00 26 28 25
5.059728e-01 2.678973e-01 -2.672754e+00 183 184 178
-5.357196e-01 2.070646e-01 -2.816024e+00 46 48 52
-5.199119e-01 1.720084e-01 -2.807672e+00 177 163 171
5.157764e-01 2.328826e-01 -2.675988e+00 143 141 144
-5.174778e-01 1.699971e-01 -2.804851e+00 162 160 154
6.285802e-01 2.274291e-01 -2.688613e+00 243 246 252
6.285066e-01 2.239583e-01 -2.688472e+00 242 244 244
3.933253e-01 1.781013e-01 -2.782048e+00 49 53 61
4.561158e-01 1.808074e-01 -2.772089e+00 110 110 112
-6.293574e-01 1.471226e-01 -2.771402e+00 194 184 209
4.626456e-01 1.774736e-01 -2.774303e+00 121 122 117
-4.447220e-01 1.649419e-01 -2.717118e+00 211 206 212
6.550087e-01 1.871345e-01 -2.624913e+00 183 193 202
-4.747698e-01 1.277108e-01 -2.714935e+00 169 164 172
5.762836e-01 1.305749e-01 -2.715918e+00 187 194 204
3.328314e-01 9.669466e-02 -2.762266e+00 127 127 89
3.386245e-01 8.804746e-02 -2.762922e+00 63 61 38
3.642669e-01 8.074627e-02 -2.762891e+00 154 155 123
3.504170e-01 7.398391e-02 -2.760791e+00 138 138 111
6.092384e-01 1.182111e-01 -2.632462e+00 112 78 56
8.803566e-01 3.102520e-02 -2.773510e+00 111 117 132
-2.745967e-01 3.609139e-02 -2.767520e+00 102 94 108
4.967997e-01 6.928529e-02 -2.720663e+00 148 144 120
4.878898e-01 3.227703e-02 -2.727882e+00 52 43 27
7.243113e-01 1.340303e-02 -2.715146e+00 195 186 205
5.175940e-01 1.692925e-02 -2.728710e+00 148 150 121
7.073176e-01 -3.517040e-03 -2.716228e+00 177 163 145
7.028434e-01 -7.931297e-03 -2.714632e+00 168 154 138
-3.965607e-01 -3.710741e-02 -2.725647e+00 44 43 59
4.084968e-01 -4.998570e-02 -2.759097e+00 190 189 187
9.366183e-02 1.690807e-02 -2.634890e+00 32 31 42
8.137453e-02 3.182637e-02 -2.605882e+00 163 174 167
7.903718e-02 3.161596e-02 -2.604434e+00 52 77 89
-2.215692e-02 5.343979e-02 -2.539441e+00 58 59 77
-2.215692e-02 5.343979e-02 -2.539441e+00 58 59 77
5.469036e-01 -1.015344e-01 -2.741511e+00 77 60 70
9.787088e-03 3.755125e-02 -2.532947e+00 132 135 140
7.282740e-01 -8.100542e-02 -2.666584e+00 202 184 148
1.073427e-02 3.719528e-02 -2.527779e+00 160 160 167
4.799346e-01 -9.567156e-02 -2.730419e+00 192 147 139
5.960696e-01 -1.176463e-01 -2.743249e+00 156 152 145
2.936352e-02 -1.242346e-02 -2.597032e+00 173 177 180
7.294082e-01 -8.389265e-02 -2.651496e+00 239 240 233
5.404690e-01 -1.041496e-01 -2.718200e+00 218 214 220
7.312134e-01 -8.252614e-02 -2.646359e+00 191 179 196
4.151089e-01 -1.157949e-01 -2.747809e+00 175 168 156
3.918720e-01 -1.180327e-01 -2.748887e+00 64 65 77
5.292513e-01 -1.126014e-01 -2.724494e+00 202 174 170
6.499123e-01 -1.330171e-01 -2.737490e+00 66 58 44
5.177694e-01 -1.279451e-01 -2.742087e+00 144 133 127
7.140285e-01 -9.796828e-02 -2.654568e+00 128 91 84
4.389534e-01 -1.135316e-01 -2.720887e+00 190 179 165
-3.376477e-01 -1.609904e-01 -2.730520e+00 189 185 191
4.583073e-01 -1.239001e-01 -2.724153e+00 214 181 169
9.894189e-01 -1.971950e-01 -2.716933e+00 181 151 159
7.085524e-01 -1.096787e-01 -2.637843e+00 94 86 94
1.005579e+00 -2.034779e-01 -2.718965e+00 205 196 186
1.082948e+00 -2.541501e-01 -2.745041e+00 231 233 215
1.034306e+00 -2.366402e-01 -2.723914e+00 46 46 55
3.898611e-01 -1.698801e-01 -2.739946e+00 158 158 158
6.554321e-01 -1.457553e-01 -2.644420e+00 196 195 206
6.516291e-01 -1.678344e-01 -2.667387e+00 222 226 228
6.667704e-01 -1.536667e-01 -2.641161e+00 155 165 180
-2.453959e-01 -2.327158e-01 -2.715184e+00 206 192 194
-3.043921e-01 -2.443980e-01 -2.711797e+00 70 72 74
-1.830302e-01 -2.198915e-01 -2.659272e+00 247 239 244
-1.085276e-01 -2.086689e-01 -2.640045e+00 50 48 65
-1.085276e-01 -2.086689e-01 -2.640045e+00 50 48 65
1.827735e-02 -2.102740e-01 -2.649236e+00 253 241 244
1.827735e-02 -2.102740e-01 -2.649236e+00 253 241 244
-1.706924e-01 -2.214060e-01 -2.632721e+00 34 34 58
2.366261e-01 -1.909611e-01 -2.634738e+00 243 231 205
-1.657979e-01 -2.249255e-01 -2.635383e+00 104 102 107
1.377557e-01 -1.834447e-01 -2.617847e+00 52 33 27
-1.918447e-01 -2.394430e-01 -2.631214e+00 77 88 96
-1.564997e-01 -2.295740e-01 -2.622383e+00 127 121 131
3.327563e-01 -2.253467e-01 -2.642548e+00 148 131 128
1.249175e-02 -2.561796e-01 -2.659115e+00 230 206 201
3.195807e-01 -2.432894e-01 -2.646089e+00 129 115 112
3.035577e-01 -2.420004e-01 -2.642018e+00 186 154 152
3.035577e-01 -2.420004e-01 -2.642018e+00 186 154 152
-8.081554e-02 -2.535311e-01 -2.629457e+00 183 189 211
-1.585321e-01 -2.693955e-01 -2.629128e+00 36 42 59
-1.717697e-01 -2.685186e-01 -2.621657e+00 37 34 62
-1.717697e-01 -2.685186e-01 -2.621657e+00 37 34 62
1.353171e-01 -2.621757e-01 -2.651290e+00 211 195 161
-3.663742e-01 -3.609578e-01 -2.608104e+00 82 84 96
-2.004027e-01 -3.307798e-01 -2.620148e+00 54 50 76
3.343209e-01 -3.247819e-01 -2.599705e+00 126 142 158
3.055870e-01 8.957164e-01 -2.907698e+00 108 98 96
2.036794e-01 8.585826e-01 -2.842311e+00 201 202 189
1.950634e-01 8.366326e-01 -2.839371e+00 169 158 156
2.389580e-01 8.186605e-01 -2.787468e+00 189 190 207
2.484990e-01 8.085645e-01 -2.793710e+00 208 208 208
6.993015e-01 8.829875e-01 -2.848548e+00 245 238 240
2.631736e-01 7.742794e-01 -2.787428e+00 160 156 145
1.718940e-01 7.765132e-01 -2.821701e+00 56 61 65
1.718940e-01 7.765132e-01 -2.821701e+00 56 61 65
2.640450e-01 7.536176e-01 -2.769275e+00 252 250 253
-1.409275e-01 7.818131e-01 -2.858016e+00 54 42 31
7.587640e-01 8.317641e-01 -2.849761e+00 140 137 127
6.909334e-01 8.271286e-01 -2.883099e+00 150 153 167
3.809354e-01 7.629619e-01 -2.877194e+00 184 167 149
7.948646e-01 8.155289e-01 -2.844242e+00 83 64 113
2.041203e-01 7.208400e-01 -2.807484e+00 164 159 153
4.008748e-01 7.417565e-01 -2.872682e+00 90 74 36
-1.837306e-01 7.387237e-01 -2.867802e+00 28 36 54
3.232572e-01 7.198720e-01 -2.893323e+00 45 46 48
3.249593e-01 7.145255e-01 -2.892151e+00 49 50 52
3.167467e-01 6.896040e-01 -2.883143e+00 71 69 73
3.110671e-01 6.796884e-01 -2.880797e+00 75 71 72
-4.714300e-02 6.291397e-01 -2.874555e+00 185 178 170
1.269204e-01 6.111131e-01 -2.832349e+00 174 165 179
3.122928e-01 5.975961e-01 -2.711415e+00 231 206 203
-5.823632e-02 6.148783e-01 -2.870692e+00 102 99 100
8.049251e-02 6.014658e-01 -2.855408e+00 190 181 172
1.716166e-01 5.994828e-01 -2.857924e+00 201 194 188
-6.799217e-02 5.999435e-01 -2.865550e+00 119 120 130
-5.269600e-02 5.984985e-01 -2.864467e+00 117 116 122
2.921304e-01 5.937130e-01 -2.858000e+00 156 146 147
-1.226189e-02 5.783434e-01 -2.848033e+00 115 117 121
6.629318e-02 5.459712e-01 -2.795993e+00 159 155 152
1.043474e-01 5.413171e-01 -2.796188e+00 172 169 164
1.166210e-01 5.308372e-01 -2.794206e+00 149 146 145
2.489841e-01 5.289491e-01 -2.833260e+00 216 209 204
2.489841e-01 5.289491e-01 -2.833260e+00 216 209 204
2.166644e-01 5.239738e-01 -2.830143e+00 181 182 177
-5.136648e-01 5.425678e-01 -2.714266e+00 244 248 225
2.241362e-01 5.111966e-01 -2.826233e+00 91 99 97
1.733983e-01 4.968546e-01 -2.802056e+00 178 170 161
8.883037e-02 4.812344e-01 -2.781617e+00 175 171 168
8.274403e-01 5.283271e-01 -2.767846e+00 250 252 254
-3.871127e-01 4.726384e-01 -2.838458e+00 15 18 27
1.045870e-01 4.499786e-01 -2.774763e+00 124 123 119
1.087691e-01 4.491294e-01 -2.776856e+00 186 183 178
1.700730e-02 4.491663e-01 -2.769258e+00 194 185 184
1.244912e-01 4.409500e-01 -2.773373e+00 182 178 175
8.477222e-02 4.309356e-01 -2.768316e+00 131 125 124
-8.476392e-01 4.671810e-01 -2.847554e+00 191 190 199
-8.289154e-01 4.347635e-01 -2.837114e+00 62 44 81
1.752733e-01 4.019228e-01 -2.767584e+00 160 156 153
-5.133172e-01 4.136355e-01 -2.722665e+00 50 45 62
5.039904e-01 4.022000e-01 -2.822383e+00 190 187 172
8.862015e-01 4.256703e-01 -2.851866e+00 167 159 156
-5.864496e-01 4.083312e-01 -2.726069e+00 195 190 194
-3.407210e-01 3.784338e-01 -2.840424e+00 119 112 110
2.327520e-01 3.740561e-01 -2.810312e+00 51 54 49
8.428962e-02 3.750071e-01 -2.756342e+00 112 110 110
-4.310236e-01 3.712893e-01 -2.840887e+00 171 152 152
-3.541430e-01 3.686894e-01 -2.838853e+00 50 42 37
8.114652e-02 3.687799e-01 -2.754560e+00 178 174 173
-3.528281e-01 3.625102e-01 -2.838153e+00 30 23 15
-4.681098e-01 3.677721e-01 -2.812739e+00 21 25 26
1.016965e-01 3.566793e-01 -2.755122e+00 195 192 187
1.174778e-01 3.544617e-01 -2.754772e+00 191 188 183
-2.287791e-01 3.365218e-01 -2.832367e+00 147 129 117
9.372051e-02 3.474735e-01 -2.751665e+00 158 155 150
1.637318e-01 3.431288e-01 -2.761477e+00 164 165 170
-5.057254e-02 3.292806e-01 -2.799539e+00 40 45 51
4.607062e-01 3.347909e-01 -2.800276e+00 125 117 111
4.607062e-01 3.347909e-01 -2.800276e+00 125 117 111
-8.619301e-01 3.222982e-01 -2.826036e+00 184 188 181
-2.671381e-01 3.125922e-01 -2.827144e+00 55 53 58
-4.609122e-01 2.970925e-01 -2.830858e+00 71 55 60
-3.254665e-01 2.894906e-01 -2.821245e+00 55 48 43
-4.765425e-01 2.838853e-01 -2.827489e+00 191 176 170
1.014275e-01 3.018708e-01 -2.744478e+00 150 141 140
-4.761862e-01 2.804766e-01 -2.827283e+00 113 94 94
4.943856e-01 3.056230e-01 -2.720478e+00 243 204 134
-2.264279e-01 2.626723e-01 -2.815084e+00 67 34 36
-2.269973e-01 2.625619e-01 -2.816077e+00 67 34 36
-1.957727e-02 2.707093e-01 -2.788886e+00 126 118 112
-5.156653e-01 2.388488e-01 -2.818568e+00 78 72 74
3.767676e-01 2.405460e-01 -2.789271e+00 101 108 116
6.986805e-01 2.665464e-01 -2.691518e+00 171 170 153
4.941696e-01 2.655618e-01 -2.672495e+00 161 162 166
3.394511e-01 2.272396e-01 -2.782862e+00 94 97 110
4.724831e-01 2.578642e-01 -2.670828e+00 145 144 149
9.294871e-01 2.168358e-01 -2.793215e+00 177 159 137
9.114829e-01 2.114668e-01 -2.797067e+00 185 170 137
9.230769e-01 2.110257e-01 -2.795048e+00 192 177 171
-6.093521e-01 1.904922e-01 -2.775061e+00 34 39 45
7.954012e-01 2.202538e-01 -2.760807e+00 137 144 132
4.564807e-01 2.071779e-01 -2.776253e+00 140 136 136
4.576324e-01 2.021889e-01 -2.777263e+00 156 153 149
8.895048e-01 1.794582e-01 -2.783256e+00 173 158 137
-5.772663e-01 1.409577e-01 -2.802768e+00 98 100 87
8.836279e-01 1.641928e-01 -2.776601e+00 59 46 40
8.836279e-01 1.641928e-01 -2.776601e+00 59 46 40
-3.255128e-01 1.617507e-01 -2.744072e+00 43 49 39
-4.362315e-01 1.590482e-01 -2.707671e+00 170 166 167
-4.562335e-01 1.423913e-01 -2.713885e+00 173 170 166
4.451044e-01 1.397502e-01 -2.778542e+00 195 191 189
-4.399298e-01 1.285601e-01 -2.711763e+00 204 200 201
4.195950e-01 1.281803e-01 -2.773741e+00 191 187 176
6.454144e-01 1.808245e-01 -2.615034e+00 170 180 189
6.680330e-01 1.866702e-01 -2.595131e+00 68 72 92
-4.925595e-01 1.122932e-01 -2.698784e+00 159 155 156
5.447035e-01 1.204654e-01 -2.746446e+00 149 123 116
-4.764623e-01 8.368135e-02 -2.704072e+00 154 151 152
3.065919e-01 9.567060e-02 -2.760464e+00 57 70 40
3.334503e-01 8.489288e-02 -2.761129e+00 37 37 9
3.409055e-01 8.449649e-02 -2.762344e+00 123 123 95
5.025934e-03 1.462852e-01 -2.584631e+00 166 166 168
5.025934e-03 1.462852e-01 -2.584631e+00 166 166 168
2.928815e-01 6.909104e-02 -2.755963e+00 40 46 32
5.329972e-01 1.080628e-01 -2.627360e+00 102 108 122
6.251757e-01 8.925139e-02 -2.637309e+00 202 190 179
-4.559669e-01 3.029361e-02 -2.685915e+00 55 45 46
4.206142e-01 1.304854e-02 -2.757403e+00 184 188 169
7.113608e-01 -2.708251e-04 -2.711179e+00 105 103 123
4.206380e-01 -4.605115e-03 -2.755257e+00 184 193 174
2.897385e-02 8.522413e-02 -2.579392e+00 131 131 129
-4.072718e-01 -8.668973e-03 -2.673167e+00 64 47 57
-1.340046e-02 7.950987e-02 -2.576983e+00 158 158 163
5.909112e-01 4.569291e-02 -2.621355e+00 201 185 172
5.203732e-01 -1.164773e-02 -2.728143e+00 187 173 159
7.001126e-01 -1.334727e-02 -2.698806e+00 248 238 249
5.836751e-02 4.885934e-02 -2.604607e+00 39 60 80
6.631171e-01 -4.679253e-02 -2.696682e+00 116 97 128
4.731698e-01 -6.843541e-02 -2.747504e+00 42 45 23
-3.741702e-02 4.949016e-02 -2.536015e+00 46 46 66
6.496405e-01 -7.388395e-02 -2.693307e+00 161 135 131
1.125989e-01 -1.241851e-02 -2.626741e+00 170 157 161
1.125989e-01 -1.241851e-02 -2.626741e+00 170 157 161
2.008962e-02 -2.239541e-02 -2.597056e+00 165 166 159
3.910693e-01 -1.208733e-01 -2.748157e+00 173 180 169
9.857408e-01 -1.790214e-01 -2.713557e+00 212 205 194
-3.564339e-01 -1.662271e-01 -2.712561e+00 176 174 186
1.055120e+00 -2.125347e-01 -2.728383e+00 255 253 248
6.342534e-01 -1.577746e-01 -2.727971e+00 237 235 222
7.047381e-01 -1.132631e-01 -2.640434e+00 162 161 186
5.143940e-02 -4.444207e-02 -2.574766e+00 246 245 218
-3.612138e-01 -1.961261e-01 -2.710781e+00 173 173 154
-3.844831e-01 -2.016997e-01 -2.708475e+00 170 172 159
2.759399e-01 -1.237693e-01 -2.658433e+00 81 57 89
-3.289634e-01 -2.107876e-01 -2.705608e+00 145 142 155
3.724101e-01 -1.971922e-01 -2.734862e+00 77 76 101
-2.378036e-01 -2.223436e-01 -2.718006e+00 178 177 150
1.606757e-01 -1.151410e-01 -2.620220e+00 202 214 226
-2.578886e-01 -2.381575e-01 -2.717315e+00 98 96 120
-3.088856e-01 -2.374746e-01 -2.698763e+00 154 152 163
1.470309e-01 -1.206844e-01 -2.614661e+00 29 41 55
2.748937e-01 -1.504910e-01 -2.646906e+00 145 134 132
2.748937e-01 -1.504910e-01 -2.646906e+00 145 134 132
1.825966e-01 -1.334089e-01 -2.618652e+00 149 165 169
1.945184e-01 -1.424768e-01 -2.619194e+00 183 190 208
2.415329e-01 -1.696480e-01 -2.643689e+00 172 170 169
-1.771538e-01 -2.146603e-01 -2.659269e+00 217 217 214
2.566805e-01 -1.726420e-01 -2.643866e+00 108 106 86
2.566805e-01 -1.726420e-01 -2.643866e+00 108 106 86
9.876745e-02 -1.547878e-01 -2.618846e+00 19 26 43
-1.335761e-01 -1.983063e-01 -2.643353e+00 139 128 142
-1.733603e-01 -2.205259e-01 -2.659241e+00 35 26 72
-2.333964e-01 -2.555602e-01 -2.687731e+00 50 57 88
-1.255416e-01 -2.049138e-01 -2.640643e+00 127 122 131
-1.336021e-01 -2.115824e-01 -2.638348e+00 179 178 183
3.443285e-01 -2.044845e-01 -2.655036e+00 111 102 117
-1.154517e-01 -2.123305e-01 -2.639704e+00 123 119 131
-3.669820e-01 -2.994384e-01 -2.686363e+00 111 105 108
1.012714e-01 -1.640474e-01 -2.602174e+00 27 37 54
1.012714e-01 -1.640474e-01 -2.602174e+00 27 37 54
3.276393e-01 -2.322564e-01 -2.647501e+00 198 157 162
-2.555783e-01 -2.818141e-01 -2.650626e+00 73 62 63
-1.776601e-01 -2.485595e-01 -2.628421e+00 192 190 191
9.463688e-03 -2.548646e-01 -2.663550e+00 237 219 200
-1.802448e-01 -2.577737e-01 -2.626965e+00 237 235 230
2.779785e-01 -2.733883e-01 -2.681562e+00 42 32 28
-3.734252e-02 -3.082112e-01 -2.705402e+00 146 136 120
3.220179e-01 -2.426224e-01 -2.644677e+00 191 190 180
3.134390e-01 -2.399642e-01 -2.642055e+00 186 152 154
3.648006e-01 -2.647162e-01 -2.648087e+00 55 37 63
2.821041e-01 -2.730963e-01 -2.638346e+00 151 127 125
3.022286e-01 -3.078557e-01 -2.641086e+00 38 34 66
2.529066e-01 -3.066457e-01 -2.630280e+00 166 136 138
2.023101e-01 8.612406e-01 -2.838395e+00 55 55 46
2.067671e-01 8.581470e-01 -2.845946e+00 54 55 40
-1.202172e-01 9.056078e-01 -2.945653e+00 197 179 165
-1.202172e-01 9.056078e-01 -2.945653e+00 197 179 165
9.676417e-02 8.541124e-01 -2.905435e+00 35 35 40
-1.866198e-01 8.610750e-01 -2.919952e+00 42 42 47
2.513576e-01 7.704272e-01 -2.785937e+00 161 157 158
2.456829e-01 7.686721e-01 -2.785214e+00 139 137 138
7.528470e-01 8.560447e-01 -2.859027e+00 168 143 136
-4.926313e-01 8.112904e-01 -2.737394e+00 103 106 97
3.806895e-01 7.724908e-01 -2.871001e+00 241 230 181
5.811487e-02 7.599843e-01 -2.886846e+00 43 42 47
1.956315e-01 7.321816e-01 -2.811802e+00 192 187 181
-1.904481e-01 7.633064e-01 -2.871373e+00 21 28 38
-1.864683e-01 7.627126e-01 -2.871408e+00 54 61 71
1.441426e-01 6.985366e-01 -2.770223e+00 153 157 186
6.307670e-02 6.311854e-01 -2.864030e+00 189 179 169
2.945669e-01 6.154558e-01 -2.863952e+00 114 104 107
4.711739e-01 6.065567e-01 -2.751168e+00 195 182 169
-6.285239e-01 6.411378e-01 -2.735880e+00 35 35 32
1.924842e-01 5.814019e-01 -2.844800e+00 69 76 84
2.569321e-01 5.381072e-01 -2.836417e+00 188 174 171
2.081553e-01 5.309602e-01 -2.829861e+00 177 177 175
6.060194e-01 5.358941e-01 -2.837561e+00 164 158 142
-5.501540e-01 5.302317e-01 -2.713188e+00 121 107 98
-5.081161e-01 5.133180e-01 -2.708885e+00 104 89 92
1.086489e-01 4.752328e-01 -2.781435e+00 199 198 194
8.326018e-01 5.225764e-01 -2.767473e+00 254 254 253
-3.962954e-01 4.898321e-01 -2.704654e+00 180 165 134
5.668699e-02 4.607292e-01 -2.778449e+00 171 166 162
6.625466e-02 4.591834e-01 -2.774715e+00 177 174 169
-4.062006e-01 4.706305e-01 -2.702156e+00 139 143 117
-4.709044e-01 4.753679e-01 -2.700363e+00 59 51 55
1.378396e-01 4.446305e-01 -2.775301e+00 156 152 151
-7.968674e-01 4.857492e-01 -2.846812e+00 187 187 193
-8.275785e-01 4.864179e-01 -2.853753e+00 179 176 185
-4.453245e-01 4.577451e-01 -2.697862e+00 197 165 166
3.324210e-02 4.221897e-01 -2.762741e+00 147 143 140
-8.147433e-01 4.513876e-01 -2.840117e+00 90 80 103
7.536439e-02 4.171462e-01 -2.765089e+00 131 126 122
-6.268578e-01 4.455121e-01 -2.734535e+00 60 47 72
-5.276479e-01 4.373985e-01 -2.730315e+00 193 185 180
-4.525695e-01 4.319198e-01 -2.725060e+00 42 35 51
1.800270e-01 4.140086e-01 -2.772060e+00 149 144 141
4.460379e-02 4.121749e-01 -2.763562e+00 176 172 169
-7.921770e-01 4.402893e-01 -2.833793e+00 71 70 74
8.579357e-02 4.102563e-01 -2.764228e+00 175 172 167
1.018843e-01 4.040180e-01 -2.766901e+00 158 154 154
1.714207e-01 4.050013e-01 -2.768005e+00 176 175 171
1.325130e-01 3.993754e-01 -2.765773e+00 172 169 164
-5.966832e-01 4.179739e-01 -2.730983e+00 198 187 201
-3.697035e-01 3.884010e-01 -2.839354e+00 41 39 44
-5.308154e-01 3.988904e-01 -2.724822e+00 48 49 75
-5.308154e-01 3.988904e-01 -2.724822e+00 48 49 75
-8.941847e-01 3.866275e-01 -2.839972e+00 73 81 100
7.457152e-02 3.620199e-01 -2.752611e+00 160 156 153
-8.439742e-01 3.613149e-01 -2.828586e+00 183 180 203
-8.213330e-01 3.553105e-01 -2.834239e+00 72 67 74
-8.213330e-01 3.553105e-01 -2.834239e+00 72 67 74
1.064997e-01 3.502451e-01 -2.751558e+00 186 182 179
7.671641e-02 3.225534e-01 -2.744764e+00 60 53 50
6.102407e-01 2.650504e-01 -2.697149e+00 180 177 172
-4.603251e-01 2.102820e-01 -2.812035e+00 17 14 27
-4.427295e-01 1.994205e-01 -2.808425e+00 141 133 122
-4.845911e-01 1.975660e-01 -2.809712e+00 63 68 43
1.977582e-01 2.213861e-01 -2.770084e+00 56 66 68
2.851158e-01 2.183751e-01 -2.777094e+00 113 124 86
4.668803e-01 2.460802e-01 -2.666126e+00 138 142 145
-5.126126e-01 1.703133e-01 -2.804490e+00 70 75 61
4.977707e-01 2.254675e-01 -2.670780e+00 162 161 166
4.479163e-01 1.918685e-01 -2.772350e+00 124 125 116
-5.497667e-01 1.476180e-01 -2.787328e+00 141 145 123
-4.265914e-01 1.723115e-01 -2.723227e+00 168 164 163
-4.201525e-01 1.723134e-01 -2.711724e+00 180 175 175
4.657968e-01 1.679960e-01 -2.769476e+00 124 119 116
6.518428e-01 1.803066e-01 -2.694990e+00 144 151 161
-3.972333e-01 1.512099e-01 -2.716360e+00 175 172 167
4.502743e-01 1.534393e-01 -2.779188e+00 195 191 190
6.192834e-01 1.573309e-01 -2.708542e+00 129 139 141
4.095926e-01 1.278264e-01 -2.772482e+00 189 181 178
5.139220e-01 1.309556e-01 -2.746725e+00 139 99 102
6.093425e-01 1.539517e-01 -2.669289e+00 150 160 170
-4.515045e-01 1.081012e-01 -2.709409e+00 153 150 157
4.989631e-01 1.178370e-01 -2.742526e+00 176 130 125
4.736907e-01 1.011493e-01 -2.776513e+00 121 119 126
-4.874672e-01 8.742739e-02 -2.694443e+00 158 147 162
5.340142e-01 1.040141e-01 -2.737062e+00 47 37 31
4.929587e-01 8.795543e-02 -2.773599e+00 90 93 86
4.929587e-01 8.795543e-02 -2.773599e+00 90 93 86
6.130144e-01 1.320444e-01 -2.640451e+00 210 209 192
3.280772e-01 8.386679e-02 -2.761865e+00 111 115 76
5.258469e-01 9.551808e-02 -2.710281e+00 161 164 159
5.612537e-01 1.246254e-01 -2.637914e+00 158 172 183
4.070905e-02 1.445822e-01 -2.586712e+00 167 163 162
-4.145383e-02 1.390980e-01 -2.584353e+00 168 168 170
1.019163e-02 1.374922e-01 -2.584356e+00 134 133 138
5.968771e-01 1.094081e-01 -2.634068e+00 216 213 208
3.388894e-01 4.202854e-02 -2.756202e+00 130 136 91
3.339292e-01 2.953753e-02 -2.753791e+00 110 109 83
3.430985e-01 2.751539e-02 -2.755365e+00 127 130 94
3.263856e-01 1.321507e-02 -2.751080e+00 27 28 17
7.226451e-01 1.584701e-02 -2.700494e+00 36 34 34
-3.745664e-01 -1.476241e-02 -2.727112e+00 36 41 46
-4.104815e-01 -1.858795e-02 -2.674589e+00 48 23 43
-2.185451e-02 5.841690e-02 -2.571379e+00 36 40 44
6.666396e-01 -4.503879e-02 -2.706122e+00 205 187 181
7.273308e-01 -2.761117e-02 -2.639850e+00 76 77 98
-2.539160e-02 5.415167e-02 -2.539346e+00 172 168 169
-3.680781e-01 -1.037526e-01 -2.726568e+00 136 134 139
7.074483e-02 7.309511e-03 -2.610123e+00 36 38 59
1.853818e-02 1.103438e-03 -2.604566e+00 55 71 95
4.578565e-01 -9.481733e-02 -2.745973e+00 155 152 108
6.207414e-01 -1.123489e-01 -2.745937e+00 93 81 88
6.070480e-01 -1.124965e-01 -2.741997e+00 162 153 131
3.944800e-01 -1.144451e-01 -2.750034e+00 193 185 172
3.944800e-01 -1.144451e-01 -2.750034e+00 193 185 172
4.630943e-01 -1.145246e-01 -2.741691e+00 44 34 16
6.453532e-01 -1.374317e-01 -2.741356e+00 178 172 149
6.602499e-01 -1.392501e-01 -2.741311e+00 218 210 195
6.243776e-01 -1.526818e-01 -2.739686e+00 161 157 136
6.379498e-01 -1.530291e-01 -2.737600e+00 223 222 187
-3.858826e-01 -1.761302e-01 -2.715360e+00 35 34 47
7.028781e-01 -1.140669e-01 -2.649651e+00 161 172 197
6.216109e-01 -1.691587e-01 -2.733658e+00 162 157 143
6.530820e-01 -1.440662e-01 -2.683901e+00 205 191 195
-3.020323e-01 -2.045973e-01 -2.723915e+00 196 192 191
-2.194670e-01 -2.016502e-01 -2.726299e+00 73 66 106
6.600419e-01 -1.509851e-01 -2.646308e+00 43 34 78
-2.219408e-01 -2.046091e-01 -2.721284e+00 36 55 58
6.598855e-01 -1.606331e-01 -2.643597e+00 237 236 229
2.453697e-01 -1.325863e-01 -2.655442e+00 148 145 142
1.090983e-01 -1.108788e-01 -2.614335e+00 129 138 140
2.841222e-01 -1.394507e-01 -2.651754e+00 237 235 223
1.682460e-01 -1.152720e-01 -2.620087e+00 35 41 69
-2.751156e-01 -2.401041e-01 -2.717324e+00 193 191 196
2.721874e-01 -1.518386e-01 -2.645035e+00 239 230 230
3.095005e-01 -2.325981e-01 -2.723132e+00 68 77 92
2.441222e-01 -1.673379e-01 -2.644472e+00 59 64 74
-2.175995e-01 -2.598949e-01 -2.676070e+00 35 32 32
-1.155650e-01 -2.280720e-01 -2.635420e+00 177 181 190
-1.730815e-01 -2.432744e-01 -2.626185e+00 211 209 210
-2.936232e-01 -2.736522e-01 -2.616910e+00 33 37 43
1.616845e-02 -2.585386e-01 -2.656565e+00 217 195 187
1.381431e-01 -2.519963e-01 -2.653850e+00 202 193 178
-3.537624e-02 -3.173780e-01 -2.702168e+00 137 124 108
1.333215e-01 -2.605075e-01 -2.652453e+00 134 125 110
2.348731e-01 -3.102477e-01 -2.702146e+00 31 35 37
-2.316996e-01 -2.904126e-01 -2.615190e+00 24 22 46
3.854199e-01 -2.841260e-01 -2.611143e+00 115 113 127
-3.144093e-01 -3.667526e-01 -2.620023e+00 162 165 170
-2.872301e-01 -3.623730e-01 -2.606039e+00 42 45 50
4.017316e-01 -3.206173e-01 -2.601228e+00 80 85 88
1.368140e-01 9.042014e-01 -2.938530e+00 178 169 163
-1.765534e-01 8.904802e-01 -2.920085e+00 17 20 26
-2.665873e-01 9.002672e-01 -2.926166e+00 33 34 36
7.532786e-01 9.323975e-01 -2.897596e+00 81 51 73
7.550846e-02 8.127386e-01 -2.853473e+00 48 49 54
-2.948421e-01 8.581157e-01 -2.883840e+00 49 50 55
2.711695e-01 7.805725e-01 -2.780490e+00 250 249 248
2.664680e-01 7.816992e-01 -2.790127e+00 245 244 241
7.336544e-01 8.600040e-01 -2.854538e+00 204 168 160
6.654468e-02 7.877639e-01 -2.888223e+00 21 19 22
6.712504e-02 7.841962e-01 -2.893346e+00 48 46 51
7.846608e-01 8.213391e-01 -2.836842e+00 70 54 84
-1.952593e-01 7.511725e-01 -2.869211e+00 21 26 38
2.682717e-01 6.792518e-01 -2.863844e+00 33 33 35
1.218156e-01 6.373561e-01 -2.858365e+00 197 190 185
2.214238e-01 6.063450e-01 -2.853416e+00 142 137 144
2.018726e-01 5.832828e-01 -2.842861e+00 179 182 187
2.018726e-01 5.832828e-01 -2.842861e+00 179 182 187
1.163258e-01 5.293524e-01 -2.796488e+00 150 146 145
-6.194132e-01 5.765695e-01 -2.762591e+00 229 190 193
-1.311038e-01 5.277904e-01 -2.843206e+00 31 39 50
2.386071e-01 5.129694e-01 -2.826750e+00 179 165 164
2.421078e-01 5.101150e-01 -2.827047e+00 208 203 197
2.421078e-01 5.101150e-01 -2.827047e+00 208 203 197
-4.213862e-01 5.159975e-01 -2.835310e+00 30 35 41
-5.608647e-01 5.284686e-01 -2.710116e+00 50 41 52
7.247362e-02 4.799415e-01 -2.780384e+00 162 162 157
-5.711227e-01 5.115021e-01 -2.708192e+00 139 171 208
-5.769212e-01 5.057589e-01 -2.707490e+00 143 123 111
3.165559e-01 4.742964e-01 -2.676158e+00 195 161 156
1.006869e-01 4.673676e-01 -2.779284e+00 141 136 133
-3.925247e-01 4.821588e-01 -2.839287e+00 15 17 29
2.575800e-02 4.637370e-01 -2.774233e+00 160 155 152
1.240801e-02 4.611370e-01 -2.773575e+00 173 168 164
1.023301e-01 4.609180e-01 -2.778545e+00 132 127 125
1.027583e-01 4.611766e-01 -2.777155e+00 132 127 125
9.119246e-03 4.527550e-01 -2.769662e+00 175 170 166
7.811745e-02 4.456652e-01 -2.771193e+00 129 124 118
1.421644e-01 4.452832e-01 -2.774555e+00 172 170 168
6.139892e-02 4.371508e-01 -2.771261e+00 166 161 158
1.088728e-01 4.280771e-01 -2.768455e+00 152 148 147
-4.616616e-01 4.490393e-01 -2.691751e+00 152 127 122
9.338613e-02 4.131235e-01 -2.766853e+00 177 174 169
-3.823617e-01 4.032740e-01 -2.842855e+00 201 185 163
1.621141e-01 3.914943e-01 -2.767077e+00 180 177 173
-7.804758e-01 4.125430e-01 -2.821092e+00 147 146 142
-8.855455e-01 4.105854e-01 -2.847718e+00 57 65 75
-3.655351e-01 3.832395e-01 -2.841348e+00 44 43 43
-3.710904e-01 3.783858e-01 -2.839538e+00 54 52 46
2.338006e-01 3.776300e-01 -2.810280e+00 160 153 150
2.338006e-01 3.776300e-01 -2.810280e+00 160 153 150
1.298017e-01 3.679843e-01 -2.757516e+00 158 154 151
-5.084054e-01 3.235641e-01 -2.821122e+00 54 61 65
-8.541870e-01 2.560284e-01 -2.816650e+00 29 34 29
6.815547e-01 2.732409e-01 -2.742613e+00 246 247 234
-3.471105e-01 2.306677e-01 -2.812515e+00 25 25 25
-2.894508e-01 2.316599e-01 -2.812071e+00 51 49 53
-2.894508e-01 2.316599e-01 -2.812071e+00 51 49 53
5.190563e-01 2.727357e-01 -2.675285e+00 193 191 193
-4.846054e-01 2.042759e-01 -2.811079e+00 180 173 156
-4.563288e-01 2.049657e-01 -2.811954e+00 38 31 38
4.646117e-01 2.584516e-01 -2.670727e+00 183 185 185
2.733001e-01 2.247179e-01 -2.778236e+00 37 39 26
-6.211665e-01 1.912975e-01 -2.775606e+00 59 59 67
-5.810290e-01 1.352979e-01 -2.801637e+00 111 113 99
-4.380961e-01 1.654386e-01 -2.721603e+00 170 169 168
6.578267e-01 1.840789e-01 -2.670676e+00 170 178 187
4.633097e-01 1.275365e-01 -2.779864e+00 204 200 199
5.038866e-01 1.345761e-01 -2.751435e+00 139 130 131
4.200477e-01 1.157740e-01 -2.772904e+00 196 192 185
8.836689e-01 4.147824e-02 -2.772635e+00 56 58 87
5.294351e-01 1.032348e-01 -2.674175e+00 166 174 185
8.092900e-02 1.226102e-01 -2.571933e+00 125 125 124
-6.314653e-03 1.014052e-01 -2.580180e+00 128 126 127
-1.975862e-03 9.497282e-02 -2.578438e+00 159 155 158
4.609617e-01 -5.930068e-02 -2.750550e+00 172 155 153
6.502411e-01 -5.299557e-02 -2.701361e+00 165 138 127
4.702892e-01 -7.197250e-02 -2.746284e+00 138 139 100
7.239318e-02 3.506440e-03 -2.611850e+00 185 174 156
5.591491e-01 -9.895098e-02 -2.747192e+00 148 113 113
9.318080e-02 -1.906572e-02 -2.629112e+00 46 40 53
6.010485e-01 -1.148368e-01 -2.743187e+00 164 157 135
7.170842e-01 -8.967277e-02 -2.656277e+00 198 164 144
1.786473e-02 -2.019828e-02 -2.597546e+00 141 151 151
7.690581e-02 -4.717195e-02 -2.624087e+00 24 27 34
6.400705e-01 -1.476138e-01 -2.737350e+00 223 223 187
2.084022e-02 -2.788906e-02 -2.587141e+00 177 204 217
2.084022e-02 -2.788906e-02 -2.587141e+00 177 204 217
3.852136e-01 -1.484524e-01 -2.743731e+00 156 156 158
1.083346e+00 -2.288417e-01 -2.737936e+00 79 76 101
2.993795e-01 -1.338735e-01 -2.721523e+00 22 27 33
3.042958e-01 -1.374753e-01 -2.724394e+00 46 50 60
1.071175e+00 -2.402269e-01 -2.740292e+00 247 245 223
6.137695e-02 -4.216418e-02 -2.569431e+00 141 135 127
-3.379498e-01 -2.142570e-01 -2.711244e+00 36 32 47
1.785520e-01 -1.108563e-01 -2.622596e+00 173 183 199
-4.439993e-02 -1.869620e-01 -2.692295e+00 53 62 71
-2.503499e-01 -2.360678e-01 -2.716076e+00 62 61 83
2.774938e-01 -1.471439e-01 -2.645780e+00 240 232 229
2.774938e-01 -1.471439e-01 -2.645780e+00 240 232 229
-7.466690e-02 -2.016417e-01 -2.658200e+00 61 59 64
-7.374106e-02 -2.005613e-01 -2.657651e+00 61 59 64
3.099286e-01 -2.445263e-01 -2.723819e+00 61 61 68
-3.776841e-01 -2.980953e-01 -2.686714e+00 124 122 124
2.326249e-01 -1.934117e-01 -2.645090e+00 74 65 75
-2.567086e-01 -2.767287e-01 -2.676858e+00 25 27 34
3.295645e-01 -2.453913e-01 -2.635588e+00 19 25 42
2.361160e-01 -3.129035e-01 -2.694798e+00 84 66 62
-7.278635e-02 -3.351415e-01 -2.696118e+00 146 156 116
3.194240e-01 -2.884885e-01 -2.647268e+00 166 161 157
-1.932620e-01 -3.244737e-01 -2.621574e+00 93 97 139
-2.718893e-01 -3.600254e-01 -2.617444e+00 58 59 98
3.375074e-01 -3.403484e-01 -2.589611e+00 25 35 39
-1.216221e-01 9.098066e-01 -2.942795e+00 47 38 33
1.191090e-01 8.801665e-01 -2.930772e+00 164 154 154
-2.724043e-01 8.814960e-01 -2.884691e+00 57 56 62
8.825976e-02 8.382472e-01 -2.914594e+00 26 25 31
1.713625e-01 7.838686e-01 -2.823832e+00 62 63 76
1.561365e-01 7.779752e-01 -2.816611e+00 57 56 64
1.413874e-01 7.480358e-01 -2.810245e+00 157 151 153
7.196659e-01 8.251774e-01 -2.859542e+00 115 107 125
3.521899e-01 7.571705e-01 -2.857791e+00 54 52 63
-2.135636e-01 7.440326e-01 -2.864470e+00 38 42 53
-2.060393e-01 7.437221e-01 -2.866916e+00 21 25 36
4.245739e-01 7.124334e-01 -2.850897e+00 174 157 131
-2.987740e-01 6.856615e-01 -2.891337e+00 23 26 33
-7.588320e-02 6.548456e-01 -2.879454e+00 49 54 65
1.797395e-01 5.508509e-01 -2.834719e+00 46 50 60
7.159261e-02 5.334365e-01 -2.792716e+00 153 149 146
1.884285e-01 5.342963e-01 -2.833202e+00 97 100 107
-1.667041e-01 5.382724e-01 -2.847735e+00 30 36 48
-1.667041e-01 5.382724e-01 -2.847735e+00 30 36 48
3.638848e-01 5.054303e-01 -2.689195e+00 252 251 246
6.927173e-02 4.933322e-01 -2.784540e+00 152 151 149
7.579328e-02 4.914304e-01 -2.784673e+00 163 159 156
-9.692587e-02 4.908174e-01 -2.834277e+00 49 52 71
-3.826480e-01 5.014089e-01 -2.833108e+00 15 18 26
-3.826480e-01 5.014089e-01 -2.833108e+00 15 18 26
-1.261506e-01 4.860150e-01 -2.832975e+00 41 49 62
-3.939202e-01 4.771874e-01 -2.835545e+00 37 41 52
8.055631e-02 4.385869e-01 -2.771392e+00 119 116 111
3.435405e-02 4.280446e-01 -2.766114e+00 172 170 171
1.465317e-01 4.194327e-01 -2.771552e+00 168 164 163
5.016380e-02 4.173331e-01 -2.762841e+00 181 177 176
9.034913e-02 3.925087e-01 -2.759063e+00 157 153 150
-5.244528e-01 3.988491e-01 -2.726023e+00 172 176 167
-6.753118e-02 3.764022e-01 -2.810395e+00 162 167 158
-5.257054e-01 3.857082e-01 -2.806944e+00 44 45 50
-8.929635e-01 3.913365e-01 -2.840321e+00 30 38 59
-5.388435e-01 3.887308e-01 -2.721611e+00 49 53 77
-4.669495e-01 3.274011e-01 -2.836921e+00 31 31 36
8.398357e-02 3.185005e-01 -2.746149e+00 159 164 167
9.020037e-01 2.816546e-01 -2.802981e+00 183 171 145
9.020037e-01 2.816546e-01 -2.802981e+00 183 171 145
-3.021380e-01 2.394054e-01 -2.808184e+00 91 20 57
9.303988e-01 2.594752e-01 -2.804006e+00 195 181 154
5.488006e-01 2.755883e-01 -2.679996e+00 190 186 185
2.956289e-01 2.395013e-01 -2.781534e+00 143 137 122
5.314306e-01 2.549733e-01 -2.678278e+00 158 158 156
-6.175870e-01 1.760582e-01 -2.769814e+00 70 75 87
4.509949e-01 1.890908e-01 -2.770401e+00 199 197 189
-5.494357e-01 1.482050e-01 -2.788403e+00 95 102 72
-5.494357e-01 1.482050e-01 -2.788403e+00 95 102 72
-6.031565e-01 1.222441e-01 -2.765686e+00 48 49 53
6.432406e-01 1.792933e-01 -2.612795e+00 173 185 194
6.183244e-01 1.626946e-01 -2.654899e+00 167 177 190
5.782787e-01 1.291112e-01 -2.728894e+00 141 151 161
4.016988e-01 1.162542e-01 -2.767394e+00 59 60 65
4.277318e-01 1.005598e-01 -2.772050e+00 184 182 174
3.535866e-01 1.017958e-01 -2.765147e+00 153 149 111
4.662367e-01 9.669451e-02 -2.774185e+00 81 89 102
-1.781480e-03 1.438195e-01 -2.584623e+00 135 136 138
-3.585995e-02 8.764151e-02 -2.578312e+00 168 167 165
-3.083653e-01 -2.259484e-02 -2.737597e+00 107 108 103
7.107118e-01 -1.496758e-03 -2.708456e+00 115 113 128
3.244664e-01 6.301644e-03 -2.714544e+00 88 97 67
-3.457007e-01 -9.687788e-02 -2.741341e+00 192 187 193
3.195938e-02 -9.271350e-03 -2.604300e+00 200 198 194
7.334932e-01 -8.129704e-02 -2.653296e+00 235 235 246
6.349039e-01 -1.501773e-01 -2.739967e+00 116 112 102
1.054874e+00 -2.056484e-01 -2.724089e+00 122 105 116
3.775710e-02 -3.835957e-02 -2.587966e+00 117 117 104
6.227204e-01 -1.616179e-01 -2.735326e+00 121 119 107
5.174443e-01 -1.113273e-01 -2.677519e+00 31 33 27
4.908801e-01 -1.557031e-01 -2.744163e+00 188 179 170
6.378001e-01 -1.777125e-01 -2.722506e+00 51 37 73
-5.966953e-02 -1.792122e-01 -2.698568e+00 39 35 50
6.463963e-01 -1.870586e-01 -2.675569e+00 54 51 77
2.792662e-01 -1.400030e-01 -2.657602e+00 203 197 181
-5.817276e-02 -1.834718e-01 -2.695825e+00 50 56 72
-5.817276e-02 -1.834718e-01 -2.695825e+00 50 56 72
-2.626890e-01 -2.284369e-01 -2.715885e+00 196 191 188
-5.611889e-02 -2.067857e-01 -2.694772e+00 34 35 41
-5.611889e-02 -2.067857e-01 -2.694772e+00 34 35 41
-2.620891e-01 -2.666749e-01 -2.697249e+00 26 24 35
-1.190190e-01 -2.006410e-01 -2.643080e+00 153 134 138
1.026389e-01 -1.612915e-01 -2.603731e+00 137 132 132
2.981879e-01 -2.553156e-01 -2.704258e+00 61 74 81
3.588520e-01 -2.140591e-01 -2.651685e+00 30 33 43
-4.261002e-03 -4.361444e-01 -2.701471e+00 27 32 37
-2.037785e-01 9.188214e-01 -2.939869e+00 14 19 25
-3.127344e-01 9.058520e-01 -2.868012e+00 56 59 62
-2.770578e-01 8.878562e-01 -2.876190e+00 63 61 71
2.539695e-01 7.976948e-01 -2.793025e+00 158 153 145
5.203988e-02 7.628465e-01 -2.803535e+00 155 119 124
3.901602e-01 7.689389e-01 -2.845667e+00 153 137 122
-1.799091e-01 7.697596e-01 -2.869952e+00 44 50 60
1.301046e-01 7.302779e-01 -2.804269e+00 158 152 149
7.767103e-01 8.191988e-01 -2.836303e+00 254 253 255
6.797027e-02 7.526968e-01 -2.895813e+00 43 44 49
3.508886e-01 7.500039e-01 -2.879107e+00 98 114 123
-2.015068e-01 7.514023e-01 -2.866697e+00 36 42 54
3.467040e-01 7.163121e-01 -2.887835e+00 37 35 37
2.361967e-01 6.360319e-01 -2.864563e+00 171 162 155
2.152131e-01 5.177647e-01 -2.826304e+00 77 92 99
3.691298e-01 5.068610e-01 -2.689576e+00 164 163 159
-3.927657e-01 5.164697e-01 -2.835015e+00 47 53 67
4.015940e-02 4.925275e-01 -2.781313e+00 158 154 153
-5.020372e-01 5.179681e-01 -2.713231e+00 127 111 114
1.193318e-01 4.781155e-01 -2.783384e+00 148 147 145
-5.166579e-01 5.070242e-01 -2.706138e+00 54 42 44
-2.897990e-01 4.767695e-01 -2.742078e+00 40 41 34
-5.594009e-01 4.797178e-01 -2.702356e+00 41 33 41
8.691465e-02 4.409738e-01 -2.771857e+00 154 151 146
8.686984e-02 4.410708e-01 -2.771239e+00 154 151 146
1.083247e-01 4.256921e-01 -2.771635e+00 154 150 149
5.325902e-02 4.001501e-01 -2.760373e+00 182 177 173
-8.811131e-01 4.237515e-01 -2.843509e+00 171 171 170
-8.795019e-01 4.189091e-01 -2.852828e+00 34 29 35
-3.999239e-01 3.762737e-01 -2.837599e+00 85 86 67
-8.934022e-01 3.839903e-01 -2.835062e+00 75 91 113
-8.466580e-01 3.665422e-01 -2.827631e+00 44 46 72
-5.052835e-01 2.866815e-01 -2.831970e+00 36 36 41
-3.160038e-01 2.761367e-01 -2.823950e+00 107 96 93
6.206916e-01 2.920538e-01 -2.706517e+00 133 133 135
5.849737e-01 2.923238e-01 -2.694805e+00 156 154 159
-3.159316e-01 2.316886e-01 -2.807778e+00 53 50 57
6.083581e-01 2.701268e-01 -2.696876e+00 137 137 137
4.868586e-01 2.555827e-01 -2.668570e+00 187 187 190
5.274438e-01 2.516542e-01 -2.677035e+00 155 155 155
-3.892983e-01 1.829869e-01 -2.801325e+00 16 17 22
-4.061070e-01 1.461996e-01 -2.715380e+00 158 154 155
-6.595549e-01 1.125283e-01 -2.746898e+00 38 25 25
6.114301e-01 1.554154e-01 -2.686553e+00 132 137 149
2.992116e-01 6.903774e-02 -2.755988e+00 84 98 63
2.992116e-01 6.903774e-02 -2.755988e+00 84 98 63
2.816667e-01 6.625761e-02 -2.752400e+00 68 77 50
4.891581e-01 6.665157e-02 -2.720728e+00 115 98 72
-3.751609e-01 -2.408009e-02 -2.725330e+00 153 158 166
1.870491e-01 -5.156857e-03 -2.754591e+00 25 30 39
5.844775e-01 4.830884e-02 -2.623824e+00 204 201 191
-3.989530e-01 -4.790615e-02 -2.721119e+00 165 162 173
7.244597e-01 -1.233918e-02 -2.683390e+00 186 176 185
4.975510e-01 -5.331325e-02 -2.728114e+00 68 78 53
4.472840e-01 -9.997348e-02 -2.751215e+00 200 169 150
-2.725323e-01 -1.439209e-01 -2.735594e+00 105 118 132
-2.725323e-01 -1.439209e-01 -2.735594e+00 105 118 132
-4.637685e-01 -2.042533e-01 -2.730949e+00 88 77 91
5.281888e-01 -1.197317e-01 -2.672476e+00 50 52 41
1.089187e-01 -1.089189e-01 -2.630487e+00 136 139 144
2.645743e-01 -1.374792e-01 -2.656081e+00 34 30 42
1.765828e-01 -1.257992e-01 -2.616945e+00 171 170 170
2.273354e-01 -1.539296e-01 -2.649331e+00 54 66 74
2.273354e-01 -1.539296e-01 -2.649331e+00 54 66 74
2.478421e-01 -1.649670e-01 -2.649378e+00 62 62 74
-2.004530e-01 -2.394244e-01 -2.686598e+00 161 153 150
-2.441696e-01 -2.626194e-01 -2.679323e+00 44 44 57
-1.623534e-01 -2.275187e-01 -2.629967e+00 91 91 95
-2.590080e-01 -2.782392e-01 -2.660724e+00 109 100 101
-2.590080e-01 -2.782392e-01 -2.660724e+00 109 100 101
-2.539420e-01 -2.824369e-01 -2.665835e+00 31 29 36
2.905129e-01 -2.618286e-01 -2.695113e+00 36 33 35
2.749572e-01 -2.711873e-01 -2.665527e+00 182 183 187
-3.066799e-01 -4.129224e-01 -2.603593e+00 57 62 76
6.941585e-01 8.701840e-01 -2.838130e+00 121 101 120
1.709033e-01 7.921406e-01 -2.825248e+00 161 153 151
1.557149e-01 7.688973e-01 -2.819596e+00 153 149 146
1.579177e-01 7.603418e-01 -2.815327e+00 63 66 77
1.478566e-01 7.530083e-01 -2.812349e+00 150 149 144
6.933157e-01 8.240811e-01 -2.888399e+00 63 60 73
6.854979e-01 8.218110e-01 -2.897088e+00 245 240 236
3.398974e-01 7.572782e-01 -2.877730e+00 30 36 37
5.734088e-02 7.496313e-01 -2.913169e+00 35 36 41
7.501722e-01 7.921793e-01 -2.831140e+00 251 251 249
1.977897e-01 7.060596e-01 -2.802891e+00 171 166 162
-3.095387e-01 6.956394e-01 -2.896236e+00 22 25 30
3.486920e-02 6.573951e-01 -2.865906e+00 60 59 73
2.463288e-01 6.326410e-01 -2.861026e+00 180 170 160
1.343857e-01 5.440852e-01 -2.803687e+00 152 139 131
-5.183151e-01 5.358134e-01 -2.713294e+00 55 46 46
-5.183151e-01 5.358134e-01 -2.713294e+00 55 46 46
3.433030e-02 4.441757e-01 -2.769977e+00 163 158 160
-5.365222e-01 4.239023e-01 -2.727506e+00 188 183 177
-2.447046e-01 3.855126e-01 -2.839164e+00 174 160 149
3.214649e-01 2.605950e-01 -2.785922e+00 188 185 180
3.214649e-01 2.605950e-01 -2.785922e+00 188 185 180
-3.671891e-01 2.101945e-01 -2.806046e+00 184 175 165
4.696920e-01 2.536018e-01 -2.669097e+00 178 176 179
-4.473517e-01 1.431201e-01 -2.716510e+00 161 157 157
4.099573e-01 1.009697e-01 -2.763231e+00 218 172 151
4.099573e-01 1.009697e-01 -2.763231e+00 218 172 151
3.380516e-01 8.416268e-02 -2.762004e+00 50 51 32
-2.966705e-01 4.830691e-02 -2.763284e+00 52 57 63
5.528790e-01 1.218716e-01 -2.630397e+00 107 123 136
6.315491e-01 1.042904e-01 -2.635938e+00 153 128 127
5.251920e-01 -3.754784e-03 -2.725847e+00 30 30 36
5.251920e-01 -3.754784e-03 -2.725847e+00 30 30 36
-3.920024e-01 -5.480472e-02 -2.719705e+00 144 146 162
-4.084708e-01 -1.125213e-01 -2.726245e+00 138 143 136
8.131002e-02 -5.339364e-03 -2.612979e+00 169 159 156
4.477955e-01 -9.840284e-02 -2.751653e+00 181 150 132
-2.794911e-01 -1.261291e-01 -2.740181e+00 199 195 192
3.197878e-01 -9.894416e-02 -2.748957e+00 28 34 46
1.202798e-01 -2.660972e-02 -2.628952e+00 231 232 232
1.228304e-01 -3.275427e-02 -2.625528e+00 44 63 93
-3.266293e-01 -2.216669e-01 -2.712495e+00 120 121 123
4.124964e-01 -1.983286e-01 -2.732921e+00 41 48 66
1.749195e-01 -1.170088e-01 -2.618563e+00 38 54 71
3.518336e-01 -2.092054e-01 -2.691304e+00 187 191 197
3.118739e-01 -2.386764e-01 -2.700593e+00 177 183 187
-2.602649e-01 -3.852491e-01 -2.616231e+00 37 40 59
3.491548e-01 -3.357584e-01 -2.584986e+00 178 172 172
-2.594517e-01 9.078889e-01 -2.898679e+00 57 52 56
2.472465e-02 8.287643e-01 -2.820718e+00 57 55 64
2.472465e-02 8.287643e-01 -2.820718e+00 57 55 64
7.345961e-01 9.020516e-01 -2.879921e+00 178 150 150
7.529300e-01 7.805942e-01 -2.853471e+00 253 247 246
3.548087e-01 5.650742e-01 -2.664230e+00 203 179 171
5.419919e-01 4.516214e-01 -2.796053e+00 203 175 165
-5.820323e-01 4.222697e-01 -2.728566e+00 218 211 207
-6.521903e-02 3.844885e-01 -2.813929e+00 44 54 66
-5.681662e-01 3.989461e-01 -2.715103e+00 99 95 99
-5.621955e-01 3.898296e-01 -2.723592e+00 169 164 165
7.029848e-02 3.646933e-01 -2.753322e+00 156 152 149
5.534066e-01 3.570783e-01 -2.711250e+00 123 120 126
-8.818412e-01 3.304636e-01 -2.822479e+00 38 38 48
-1.888768e-02 2.805579e-01 -2.789290e+00 169 161 158
5.143822e-01 2.922825e-01 -2.700276e+00 160 183 192
5.305518e-01 2.723046e-01 -2.677429e+00 151 150 155
9.393594e-01 2.445693e-01 -2.808685e+00 188 172 146
5.362011e-01 2.475292e-01 -2.677724e+00 176 174 175
-4.285347e-01 1.783384e-01 -2.720234e+00 188 184 182
-6.784913e-01 1.424206e-01 -2.734951e+00 39 25 28
3.249538e-01 2.119353e-02 -2.751162e+00 124 126 89
5.685545e-01 7.003225e-02 -2.625581e+00 164 112 124
3.020306e-01 2.738726e-02 -2.722946e+00 25 27 21
4.587386e-01 -2.018495e-02 -2.765576e+00 185 180 174
7.835874e-02 1.091491e-02 -2.611542e+00 29 33 44
-3.672951e-01 -1.342148e-01 -2.726789e+00 117 118 122
-2.162519e-01 -2.527073e-01 -2.681027e+00 56 54 63
3.262877e-01 -2.334075e-01 -2.686794e+00 188 162 163
-2.804945e-01 -3.712268e-01 -2.604010e+00 101 106 112
-1.056149e-01 -4.400965e-01 -2.692496e+00 16 17 21
1.222299e-01 7.274016e-01 -2.796270e+00 48 48 58
1.222299e-01 7.274016e-01 -2.796270e+00 48 48 58
7.514557e-01 8.135724e-01 -2.833507e+00 106 122 151
7.514557e-01 8.135724e-01 -2.833507e+00 106 122 151
1.255813e-01 6.063023e-01 -2.840780e+00 249 247 250
-1.417547e-01 5.507882e-01 -2.850676e+00 27 33 45
-4.042345e-01 4.993836e-01 -2.836558e+00 26 33 43
1.538744e-01 4.587621e-01 -2.781331e+00 170 166 165
1.369711e-01 4.500397e-01 -2.777384e+00 157 153 152
1.369711e-01 4.500397e-01 -2.777384e+00 157 153 152
2.198693e-01 4.225820e-01 -2.819774e+00 42 45 52
-7.454647e-02 3.787582e-01 -2.809701e+00 167 161 155
5.548923e-01 2.798928e-01 -2.677208e+00 150 148 154
8.981216e-01 1.930100e-01 -2.788339e+00 182 173 141
-5.976249e-01 1.649657e-01 -2.769644e+00 52 63 83
-4.760900e-01 7.477181e-02 -2.701005e+00 172 167 172
5.501917e-01 1.117141e-01 -2.618582e+00 207 197 191
6.637871e-01 -5.173975e-02 -2.688037e+00 127 98 102
6.637871e-01 -5.173975e-02 -2.688037e+00 127 98 102
1.266168e-01 -1.060338e-02 -2.640009e+00 34 31 37
6.820833e-02 -4.131119e-04 -2.608316e+00 29 32 46
6.584094e-01 -1.394407e-01 -2.652134e+00 188 164 160
1.637264e-01 -1.245521e-01 -2.621206e+00 38 45 59
9.317234e-02 -1.342896e-01 -2.623064e+00 165 175 181
-2.566210e-01 -2.781490e-01 -2.642368e+00 122 112 113
4.941143e-02 -2.975258e-01 -2.639300e+00 53 51 64
-3.420727e-01 7.369354e-01 -2.905123e+00 20 21 25
1.080621e-01 5.856808e-01 -2.831010e+00 181 176 172
-2.879835e-01 4.700101e-01 -2.732800e+00 22 23 18
-3.936828e-01 1.788207e-01 -2.731619e+00 35 30 37
-4.708792e-01 1.074671e-01 -2.715206e+00 155 150 154
4.864465e-02 1.125843e-01 -2.583559e+00 169 168 164
4.107021e-02 -1.404618e-02 -2.598045e+00 26 32 43
1.427030e-01 -3.518555e-02 -2.626520e+00 49 68 93
1.427030e-01 -3.518555e-02 -2.626520e+00 49 68 93
6.461730e-01 -1.438118e-01 -2.682552e+00 207 194 201
5.924802e-01 -1.987254e-01 -2.725032e+00 43 45 44
3.273068e-01 -3.261461e-01 -2.595711e+00 40 47 68
-4.668674e-01 3.081531e-01 -2.834437e+00 33 34 39
5.324578e-01 3.909066e-03 -2.735579e+00 33 32 37
6.783357e-01 -1.223368e-01 -2.655972e+00 154 143 143
-3.703084e-01 -2.049278e-01 -2.707537e+00 156 155 151
2.207779e-01 -1.821595e-01 -2.643570e+00 159 155 145
2.357950e-01 4.824143e-01 -2.803643e+00 52 50 53
-8.436446e-02 1.241717e-01 -2.579471e+00 26 29 40
-4.210508e-01 -5.705281e-02 -2.724353e+00 30 31 35
4.262473e-02 1.900931e-02 -2.607222e+00 51 72 99
7.126279e-01 -9.420446e-02 -2.660772e+00 204 170 155
2.801287e-01 -2.566251e-01 -2.693203e+00 32 25 29
3.657929e-01 -2.508140e-01 -2.657319e+00 188 181 174
-4.902901e-01 3.991968e-01 -2.720266e+00 31 32 36
5.351613e-01 -7.696998e-02 -2.737441e+00 173 165 154
5.018207e-01 -1.322236e-01 -2.678377e+00 41 40 28
2.912027e-01 -1.582849e-01 -2.672403e+00 177 174 178
1.739321e-01 5.470026e-01 -2.815298e+00 51 60 67
-5.358008e-01 1.676401e-01 -2.784048e+00 32 37 33
-6.417616e-01 1.375842e-01 -2.748280e+00 20 21 26
3.683719e-01 -1.782567e-01 -2.738423e+00 156 156 156
5.193579e-01 1.169309e-01 -2.737409e+00 50 49 44
-3.563480e-01 -3.544974e-02 -2.725222e+00 158 161 168
1.330516e-03 6.739362e-02 -2.564881e+00 32 41 50
2.009707e-01 -1.193277e-01 -2.635360e+00 33 40 51
-3.790884e-01 3.169002e-01 -2.815311e+00 44 44 49
5.693483e-01 -1.124052e-01 -2.717897e+00 44 42 48
5.458169e-02 7.016366e-01 -2.847265e+00 41 42 47
-4.232761e-01 1.155759e-01 -2.709522e+00 176 172 173
3.576488e-01 -7.393192e-01 -2.604825e+00 40 37 37
1.158997e-01 -7.052841e-01 -2.614178e+00 38 37 38
1.063069e-01 -6.961613e-01 -2.615489e+00 149 139 148
1.435065e-01 -6.877557e-01 -2.615823e+00 155 154 144
-2.006810e-01 -6.448495e-01 -2.569062e+00 71 75 84
