ply
format ascii 1.0
element face 0
property list uchar int vertex_indices
element vertex 922
property float x
property float y
property float z
property uchar diffuse_red
property uchar diffuse_green
property uchar diffuse_blue
end_header
-3.505081e-01 4.067499e-01 -2.828482e+00 24 25 28
-2.979984e-01 4.021832e-01 -2.830923e+00 115 110 99
2.949967e-01 3.774965e-01 -2.771870e+00 211 223 231
-3.124802e-01 4.020959e-01 -2.830673e+00 104 104 100
-2.740270e-01 3.990211e-01 -2.829772e+00 63 64 59
-2.949947e-01 3.899671e-01 -2.828152e+00 68 72 75
1.090784e-01 3.580426e-01 -2.750532e+00 180 179 175
-2.428731e-01 3.806744e-01 -2.826050e+00 178 166 154
7.338336e-01 3.823527e-01 -2.713080e+00 175 172 167
-3.369421e-01 3.776012e-01 -2.826711e+00 93 89 79
6.590881e-01 3.666657e-01 -2.721897e+00 190 188 194
4.925561e-01 3.662775e-01 -2.812231e+00 115 119 85
3.346689e-02 3.469520e-01 -2.798978e+00 172 162 148
-3.802110e-01 3.707665e-01 -2.826282e+00 42 37 42
-4.529563e-01 3.734271e-01 -2.814245e+00 21 27 34
-3.044455e-01 3.615252e-01 -2.825116e+00 67 68 73
-2.702397e-01 3.497902e-01 -2.820956e+00 76 71 77
-2.610804e-01 3.304710e-01 -2.817640e+00 146 137 138
-9.144134e-02 3.128886e-01 -2.771717e+00 151 134 136
-4.594068e-01 3.370546e-01 -2.825669e+00 33 33 35
-2.649162e-01 3.207515e-01 -2.814960e+00 90 80 69
1.364233e-01 2.876973e-01 -2.768986e+00 199 199 201
4.691489e-01 2.864277e-01 -2.762847e+00 248 247 246
-2.696733e-01 2.903562e-01 -2.808611e+00 72 67 63
-4.409207e-01 3.002949e-01 -2.819264e+00 131 118 105
2.347344e-01 2.750556e-01 -2.777308e+00 160 159 138
4.719208e-01 2.807479e-01 -2.765759e+00 253 251 253
-4.717000e-01 2.827009e-01 -2.818303e+00 179 165 162
3.745296e-01 2.621635e-01 -2.787894e+00 146 144 131
-2.268924e-01 2.648981e-01 -2.800751e+00 56 21 32
-2.268924e-01 2.648981e-01 -2.800751e+00 56 21 32
4.695401e-01 2.324976e-01 -2.737061e+00 211 193 194
-3.384773e-01 2.373028e-01 -2.801261e+00 155 146 142
2.806804e-01 2.201732e-01 -2.769839e+00 34 37 14
-4.448567e-01 2.355309e-01 -2.809468e+00 52 63 45
-5.060588e-01 2.386554e-01 -2.809820e+00 146 137 130
-3.863706e-01 2.296591e-01 -2.804438e+00 190 176 167
4.443844e-01 2.193808e-01 -2.772145e+00 115 116 120
3.929128e-01 2.172063e-01 -2.780277e+00 184 193 199
3.929128e-01 2.172063e-01 -2.780277e+00 184 193 199
-7.121135e-02 1.996451e-01 -2.571819e+00 146 141 145
2.258160e-02 1.952433e-01 -2.568114e+00 169 165 163
2.275561e-01 2.012752e-01 -2.717640e+00 23 27 21
8.248400e-03 1.888036e-01 -2.573016e+00 151 150 146
4.558754e-01 1.970351e-01 -2.769786e+00 204 205 193
-5.649416e-01 2.133812e-01 -2.811160e+00 39 38 43
-7.872204e-03 1.795096e-01 -2.569264e+00 167 167 167
-1.111834e+00 2.548718e-01 -2.911185e+00 107 95 81
4.164980e-01 1.875131e-01 -2.777126e+00 70 83 99
-5.544823e-01 1.937170e-01 -2.808058e+00 39 41 47
2.968649e-02 1.628980e-01 -2.567476e+00 140 139 137
4.869186e-01 1.763654e-01 -2.770288e+00 188 182 170
4.691651e-01 1.750678e-01 -2.768534e+00 212 213 198
-9.180357e-01 2.085762e-01 -2.814000e+00 94 94 74
-2.915091e-03 1.586200e-01 -2.565402e+00 131 132 130
-1.021171e+00 2.129140e-01 -2.894438e+00 91 79 78
-8.410602e-01 1.998139e-01 -2.846969e+00 25 27 40
-8.353915e-01 1.940773e-01 -2.844141e+00 32 37 53
9.557415e-03 1.534413e-01 -2.565168e+00 134 134 133
-1.110603e+00 2.112334e-01 -2.904182e+00 70 59 66
-4.311506e-01 1.597517e-01 -2.712576e+00 152 150 149
-5.728537e-01 1.646167e-01 -2.771259e+00 122 134 151
-4.896716e-01 1.437265e-01 -2.705385e+00 37 37 39
-1.691675e-01 1.185267e-01 -2.598638e+00 220 216 216
-4.496543e-01 1.209149e-01 -2.707449e+00 202 201 196
-4.496543e-01 1.209149e-01 -2.707449e+00 202 201 196
-7.287154e-01 1.211971e-01 -2.745162e+00 179 180 172
4.141993e-01 1.038779e-01 -2.754386e+00 216 169 151
4.141993e-01 1.038779e-01 -2.754386e+00 216 169 151
-7.376847e-01 1.121612e-01 -2.745109e+00 160 162 157
4.844946e-02 9.783095e-02 -2.555930e+00 173 172 168
1.399387e-01 5.693113e-02 -2.629475e+00 190 150 150
-3.877200e-01 4.752339e-02 -2.660565e+00 127 128 131
-1.988148e-02 5.007252e-02 -2.508533e+00 130 131 130
-7.376564e-01 2.420823e-02 -2.768080e+00 251 248 245
3.812861e-01 1.182032e-02 -2.744312e+00 146 150 111
-2.051315e-01 1.094061e-02 -2.749241e+00 168 163 153
7.038048e-01 3.791771e-03 -2.773428e+00 212 208 188
4.769944e-01 -1.181064e-02 -2.754145e+00 148 126 114
1.203305e-01 -6.152320e-03 -2.605293e+00 167 151 146
-5.654041e-01 -5.622263e-02 -2.782830e+00 16 17 21
4.809460e-01 -5.092197e-02 -2.749547e+00 159 154 112
6.256039e-01 -6.368553e-02 -2.750861e+00 163 146 129
6.224837e-01 -6.573866e-02 -2.747972e+00 168 152 133
7.446950e-01 -7.559150e-02 -2.680604e+00 191 174 175
7.446950e-01 -7.559150e-02 -2.680604e+00 191 174 175
5.630142e-01 -8.537972e-02 -2.752879e+00 183 165 151
5.595571e-01 -9.082565e-02 -2.742311e+00 155 126 122
6.562728e-01 -8.721970e-02 -2.698826e+00 170 140 136
7.537700e-01 -9.156829e-02 -2.635043e+00 244 249 253
4.496429e-01 -1.030247e-01 -2.740090e+00 37 40 46
4.545229e-01 -1.090459e-01 -2.741776e+00 44 47 29
5.378281e-01 -1.100680e-01 -2.735928e+00 181 158 137
7.927537e-01 -9.579645e-02 -2.589501e+00 181 189 184
4.081722e-01 -1.165335e-01 -2.745953e+00 75 78 90
4.081722e-01 -1.165335e-01 -2.745953e+00 75 78 90
6.987710e-01 -1.230537e-01 -2.674185e+00 155 151 147
2.673668e-01 -1.134548e-01 -2.649955e+00 190 187 180
7.174787e-01 -1.366250e-01 -2.623115e+00 244 253 249
1.677399e-01 -1.197357e-01 -2.607030e+00 191 208 228
6.293200e-01 -1.784929e-01 -2.741080e+00 164 157 151
8.945878e-01 -2.090047e-01 -2.733238e+00 61 60 69
6.388413e-01 -2.071767e-01 -2.745290e+00 155 147 136
-4.841362e-01 -2.176932e-01 -2.756087e+00 172 163 158
9.373776e-02 -1.637824e-01 -2.610657e+00 141 155 164
6.280528e-01 -2.165709e-01 -2.726070e+00 231 237 235
8.620046e-01 -2.782723e-01 -2.744147e+00 201 201 165
8.995473e-01 -2.725159e-01 -2.709132e+00 242 232 230
-1.394549e-01 -2.172616e-01 -2.640897e+00 189 188 186
-1.394549e-01 -2.172616e-01 -2.640897e+00 189 188 186
-1.465329e-01 -2.217163e-01 -2.639403e+00 186 187 189
-1.340609e-01 -2.220411e-01 -2.640813e+00 178 176 174
-1.340609e-01 -2.220411e-01 -2.640813e+00 178 176 174
-4.516589e-01 -2.611067e-01 -2.711130e+00 173 171 154
7.397686e-01 -2.821709e-01 -2.745663e+00 179 169 162
8.725482e-01 -2.962734e-01 -2.733252e+00 140 141 154
-2.852071e-01 -2.653784e-01 -2.721264e+00 40 50 60
8.720036e-01 -3.027189e-01 -2.725999e+00 213 224 226
-1.877463e-01 -2.355569e-01 -2.627684e+00 97 101 99
8.843756e-01 -2.997009e-01 -2.699229e+00 147 153 167
8.830999e-01 -3.009626e-01 -2.693256e+00 220 227 232
7.479367e-01 -3.074846e-01 -2.746986e+00 214 203 207
-4.218239e-01 -2.828349e-01 -2.705405e+00 152 151 149
8.894267e-01 -3.089856e-01 -2.660860e+00 113 91 106
-3.667830e-01 -2.971239e-01 -2.708050e+00 144 144 148
6.030955e-01 -3.060426e-01 -2.715179e+00 190 173 176
5.973845e-01 -3.215950e-01 -2.750318e+00 184 174 162
5.973845e-01 -3.215950e-01 -2.750318e+00 184 174 162
-3.995179e-01 -3.046519e-01 -2.706570e+00 165 160 155
6.861153e-01 -3.273248e-01 -2.730441e+00 203 199 198
9.263363e-01 -3.337935e-01 -2.672798e+00 232 244 236
6.713078e-01 -3.455007e-01 -2.709239e+00 207 201 215
9.024143e-01 -3.586377e-01 -2.669701e+00 171 159 151
6.134379e-01 -3.570154e-01 -2.746599e+00 184 177 165
6.134379e-01 -3.570154e-01 -2.746599e+00 184 177 165
7.079051e-01 -3.319799e-01 -2.653853e+00 193 187 181
7.098117e-01 -3.320302e-01 -2.647468e+00 191 186 186
2.512997e-01 -3.218858e-01 -2.693374e+00 147 157 164
6.766026e-01 -3.480664e-01 -2.675668e+00 145 144 163
-1.398140e-01 -3.089855e-01 -2.636771e+00 72 71 85
1.925855e-01 -3.382565e-01 -2.716016e+00 180 172 171
6.915746e-01 -3.463782e-01 -2.645518e+00 210 205 220
2.034069e-01 -3.484583e-01 -2.697685e+00 170 189 207
-3.332127e-01 -3.387604e-01 -2.633078e+00 42 48 73
-2.724843e-01 -3.402030e-01 -2.634493e+00 145 146 150
-5.107409e-02 -3.625839e-01 -2.710824e+00 25 27 18
-1.550716e-01 -3.285845e-01 -2.617613e+00 16 29 36
6.936748e-01 -3.672086e-01 -2.613140e+00 184 196 208
-1.672346e-01 -3.358395e-01 -2.612103e+00 197 185 195
-1.134087e-01 -3.748233e-01 -2.705886e+00 33 39 29
1.117710e-01 -3.800711e-01 -2.709713e+00 104 103 111
-1.758443e-01 -3.677145e-01 -2.629639e+00 87 93 122
-1.737508e-01 -3.697712e-01 -2.630240e+00 74 93 120
-3.881229e-01 -3.829063e-01 -2.613574e+00 35 37 57
1.910135e-01 -4.018393e-01 -2.701060e+00 221 239 240
-1.751717e-01 -3.772914e-01 -2.627640e+00 23 20 45
6.965134e-01 -4.307976e-01 -2.602041e+00 155 168 186
2.070209e-01 -4.191296e-01 -2.658029e+00 54 51 58
-5.084174e-01 -4.559105e-01 -2.603069e+00 116 135 119
1.502331e-01 -4.419663e-01 -2.662086e+00 20 27 20
4.380074e-01 -4.809228e-01 -2.703774e+00 185 175 173
-3.772831e-01 -4.868781e-01 -2.610315e+00 32 31 52
4.283093e-01 -5.104307e-01 -2.680421e+00 183 179 183
5.079181e-02 -5.040784e-01 -2.696155e+00 40 45 49
-5.519688e-02 -5.048645e-01 -2.687751e+00 41 39 43
-3.118697e-01 -4.806660e-01 -2.601470e+00 41 39 50
-4.312263e-02 -5.112698e-01 -2.694073e+00 15 16 20
4.425770e-01 -5.083436e-01 -2.655335e+00 147 137 136
1.678686e-01 -5.010898e-01 -2.673528e+00 79 66 30
-3.086076e-01 -4.891535e-01 -2.608060e+00 141 142 136
2.206826e-01 -5.051036e-01 -2.674561e+00 23 28 24
4.126352e-01 -5.243270e-01 -2.674835e+00 62 61 90
4.471966e-01 -5.070323e-01 -2.636552e+00 162 139 142
-3.293582e-01 -4.989536e-01 -2.609681e+00 191 192 187
2.335592e-01 -5.128479e-01 -2.676116e+00 108 116 102
-2.799008e-01 -4.904143e-01 -2.602013e+00 203 198 208
4.077442e-02 -5.190722e-01 -2.684795e+00 131 127 124
-2.994264e-01 -5.077837e-01 -2.607818e+00 36 32 63
-2.994264e-01 -5.077837e-01 -2.607818e+00 36 32 63
7.710520e-02 -5.198847e-01 -2.667102e+00 127 128 130
3.769765e-02 -5.251096e-01 -2.674692e+00 172 171 176
-3.223108e-01 -5.151860e-01 -2.602753e+00 50 46 62
3.579165e-02 -5.308783e-01 -2.663522e+00 25 31 28
3.669045e-01 -5.549843e-01 -2.671076e+00 187 174 154
-3.112568e-01 -5.253092e-01 -2.597255e+00 189 188 197
-3.112568e-01 -5.253092e-01 -2.597255e+00 189 188 197
1.959034e-02 -5.528303e-01 -2.669122e+00 134 131 135
-3.850323e-01 -5.419397e-01 -2.585762e+00 172 141 148
1.054732e-01 -5.739620e-01 -2.691645e+00 170 164 162
3.722844e-03 -5.732047e-01 -2.674825e+00 31 31 33
5.668573e-03 -5.757056e-01 -2.673964e+00 189 184 185
1.578023e-01 6.743643e-01 -2.824861e+00 222 196 184
1.552597e-02 6.592295e-01 -2.837848e+00 159 141 137
1.693827e-01 6.530364e-01 -2.834155e+00 233 230 236
1.693827e-01 6.530364e-01 -2.834155e+00 233 230 236
1.556140e-01 6.596204e-01 -2.853962e+00 224 199 172
5.767468e-01 6.546738e-01 -2.756564e+00 181 182 174
1.034929e-01 6.541391e-01 -2.856202e+00 184 179 168
1.678751e-01 6.487939e-01 -2.843556e+00 238 235 243
1.110944e-01 6.506943e-01 -2.857675e+00 193 191 181
1.759187e-01 6.448967e-01 -2.844922e+00 245 240 248
5.143764e-01 6.401634e-01 -2.764974e+00 249 247 252
1.709059e-01 6.388319e-01 -2.850681e+00 76 71 55
5.991909e-01 6.345071e-01 -2.755508e+00 201 207 209
1.412082e-01 6.153952e-01 -2.838507e+00 177 186 191
1.533312e-01 6.118971e-01 -2.838457e+00 163 173 184
1.192210e-01 6.012283e-01 -2.846276e+00 191 185 180
-4.229707e-02 5.980186e-01 -2.854890e+00 170 171 168
-7.174569e-02 5.955142e-01 -2.852736e+00 163 158 166
-6.874689e-02 5.929457e-01 -2.851692e+00 62 65 74
-1.370133e-01 5.744605e-01 -2.848307e+00 37 41 52
-1.524601e-01 5.720579e-01 -2.845736e+00 29 33 45
-1.164145e-01 5.706219e-01 -2.848448e+00 76 80 89
-1.164145e-01 5.706219e-01 -2.848448e+00 76 80 89
-9.748524e-02 5.624691e-01 -2.845542e+00 183 178 178
2.305270e-01 5.477277e-01 -2.835604e+00 176 172 169
1.625813e-02 5.412110e-01 -2.828446e+00 177 166 167
-4.348429e-01 5.457188e-01 -2.731335e+00 219 227 230
-5.180689e-01 5.462777e-01 -2.726139e+00 250 253 237
-4.434494e-01 5.271917e-01 -2.722307e+00 95 90 84
-7.369246e-02 5.236676e-01 -2.836293e+00 50 54 64
2.393574e-01 5.146025e-01 -2.824032e+00 172 165 162
3.431820e-02 4.950095e-01 -2.783320e+00 156 152 151
-4.149666e-01 5.074139e-01 -2.714923e+00 147 133 125
-8.756115e-02 5.033858e-01 -2.827194e+00 47 57 67
-1.554896e-01 5.064746e-01 -2.832612e+00 36 44 55
-6.880109e-02 4.956653e-01 -2.829326e+00 59 69 83
-5.635155e-01 5.077909e-01 -2.720767e+00 94 91 93
-5.635155e-01 5.077909e-01 -2.720767e+00 94 91 93
3.033220e-01 4.641305e-01 -2.794059e+00 236 238 237
-5.656242e-01 4.886062e-01 -2.716470e+00 140 132 114
-5.656242e-01 4.886062e-01 -2.716470e+00 140 132 114
5.628226e-01 4.725726e-01 -2.778805e+00 110 103 100
5.628226e-01 4.725726e-01 -2.778805e+00 110 103 100
-2.891181e-01 4.560869e-01 -2.751763e+00 21 24 16
-5.665689e-01 4.739437e-01 -2.715086e+00 90 80 78
-1.748781e-01 4.488175e-01 -2.801694e+00 145 135 126
5.411320e-01 4.595952e-01 -2.794168e+00 182 171 176
-2.006546e-01 4.454774e-01 -2.806289e+00 162 166 170
-2.194444e-01 4.445563e-01 -2.807649e+00 161 133 143
9.572532e-02 4.223345e-01 -2.768904e+00 174 173 171
-2.253464e-01 4.319517e-01 -2.804854e+00 174 173 189
1.240633e-01 4.023276e-01 -2.763364e+00 169 168 166
-6.217720e-01 4.521600e-01 -2.748335e+00 116 123 129
3.380268e-01 4.120406e-01 -2.798294e+00 224 223 223
5.906525e-02 3.917035e-01 -2.756821e+00 163 163 159
-3.412118e-01 4.161101e-01 -2.832911e+00 28 29 29
-3.045600e-01 4.106498e-01 -2.835383e+00 142 133 116
-3.291913e-01 4.111920e-01 -2.834578e+00 73 67 61
-1.874857e-01 3.934355e-01 -2.795770e+00 174 164 165
-1.874857e-01 3.934355e-01 -2.795770e+00 174 164 165
2.386779e-01 3.882981e-01 -2.807888e+00 153 142 144
2.386779e-01 3.882981e-01 -2.807888e+00 153 142 144
1.143700e-01 3.736052e-01 -2.755830e+00 176 177 172
-2.922517e-01 4.039005e-01 -2.832024e+00 72 68 58
-5.310469e-01 4.046789e-01 -2.728343e+00 61 56 75
-5.310469e-01 4.046789e-01 -2.728343e+00 61 56 75
-5.341607e-01 4.020976e-01 -2.729059e+00 47 54 76
-5.341607e-01 4.020976e-01 -2.729059e+00 47 54 76
3.138736e-01 3.691007e-01 -2.772601e+00 205 214 224
1.187734e-01 3.463101e-01 -2.750121e+00 35 35 35
1.187734e-01 3.463101e-01 -2.750121e+00 35 35 35
6.399927e-01 3.700489e-01 -2.755058e+00 252 253 250
-1.055689e-01 3.424620e-01 -2.775801e+00 173 173 176
-4.790751e-01 3.665606e-01 -2.810519e+00 22 23 29
1.180737e-01 3.190150e-01 -2.744485e+00 173 176 175
4.685045e-01 3.393156e-01 -2.798658e+00 195 185 187
4.547047e-01 3.321924e-01 -2.795828e+00 116 112 104
2.211889e-01 3.163572e-01 -2.784643e+00 125 121 105
-5.873746e-02 3.114781e-01 -2.761606e+00 168 130 141
-4.552757e-01 3.391093e-01 -2.829246e+00 40 36 41
-2.802311e-01 3.230827e-01 -2.815008e+00 156 146 144
3.012740e-01 3.023247e-01 -2.769827e+00 101 127 155
3.621371e-01 3.004996e-01 -2.777360e+00 172 168 161
1.770027e-01 2.802076e-01 -2.774087e+00 100 95 66
-4.318790e-01 2.978038e-01 -2.817422e+00 117 104 88
3.756597e-01 2.667034e-01 -2.788482e+00 188 184 177
-4.603725e-01 2.853075e-01 -2.817641e+00 174 156 152
3.851277e-01 2.526687e-01 -2.784803e+00 185 182 170
2.876877e-01 2.433444e-01 -2.776892e+00 117 121 97
1.965841e-01 2.395612e-01 -2.766501e+00 24 33 32
2.801668e-01 2.353968e-01 -2.772791e+00 32 39 28
2.235171e-01 2.302114e-01 -2.769426e+00 91 98 79
-1.778064e-02 2.057706e-01 -2.573506e+00 136 136 134
-5.212696e-01 2.294151e-01 -2.810965e+00 41 41 42
-5.479409e-01 2.082580e-01 -2.806628e+00 37 42 47
-4.066422e-02 1.730503e-01 -2.566958e+00 153 154 156
-1.112854e+00 2.293703e-01 -2.908876e+00 51 50 46
-6.166760e-01 1.894496e-01 -2.777438e+00 58 58 68
-7.746135e-02 1.612933e-01 -2.563286e+00 139 139 140
-1.159366e+00 2.208498e-01 -2.913621e+00 56 46 58
-5.889288e-01 1.790665e-01 -2.776301e+00 43 50 68
-8.351660e-01 1.832253e-01 -2.842263e+00 163 175 179
-5.625994e-02 1.468130e-01 -2.561246e+00 134 133 133
-4.264917e-01 1.564083e-01 -2.710848e+00 150 146 147
-2.722525e-01 1.490622e-01 -2.780446e+00 44 43 48
-5.797032e-01 1.606702e-01 -2.768867e+00 57 69 90
-1.077994e+00 1.869415e-01 -2.895498e+00 73 72 67
-8.385612e-01 1.591926e-01 -2.839323e+00 124 116 94
-2.980923e-04 1.299210e-01 -2.558641e+00 136 136 138
5.202746e-01 1.331991e-01 -2.747085e+00 151 105 100
-8.430081e-01 1.550569e-01 -2.835109e+00 189 193 204
-4.549574e-01 1.283641e-01 -2.709931e+00 195 193 195
-4.278173e-01 1.192297e-01 -2.705400e+00 152 147 146
-2.577598e-02 1.072901e-01 -2.554052e+00 133 133 133
-3.479823e-01 9.312617e-02 -2.660794e+00 145 144 149
-7.425141e-01 1.002813e-01 -2.742134e+00 74 71 81
-3.538600e-01 8.719537e-02 -2.662376e+00 133 134 138
-7.717803e-01 9.134604e-02 -2.748492e+00 167 159 178
7.476411e-01 6.500868e-02 -2.737882e+00 203 201 206
7.590450e-01 5.398604e-02 -2.737679e+00 135 133 138
-2.638940e-01 4.780585e-02 -2.753675e+00 85 85 96
-4.609048e-02 6.049997e-02 -2.509339e+00 125 125 123
-4.298998e-02 4.860731e-02 -2.488489e+00 99 113 121
5.294412e-01 2.714492e-02 -2.738046e+00 64 55 23
-5.308850e-02 4.773081e-02 -2.487694e+00 61 69 80
-5.225864e-02 4.464648e-02 -2.487129e+00 65 71 86
-2.692588e-02 4.181021e-02 -2.487050e+00 161 168 175
4.801719e-01 1.067706e-02 -2.753145e+00 156 144 124
7.647130e-01 1.565632e-02 -2.665488e+00 248 248 246
3.387475e-01 5.967599e-03 -2.704592e+00 18 21 8
-2.311601e-01 6.144936e-04 -2.748311e+00 189 186 179
7.039216e-01 -2.651651e-03 -2.764067e+00 236 241 223
7.339522e-01 2.231796e-03 -2.697397e+00 252 251 248
1.277744e-01 8.971113e-03 -2.616889e+00 166 126 116
1.168626e-01 -6.058554e-05 -2.605886e+00 91 81 79
2.948281e-01 -2.424179e-02 -2.745904e+00 26 29 36
-3.829680e-01 -4.519438e-02 -2.717079e+00 156 161 170
-3.549693e-01 -5.425849e-02 -2.716455e+00 164 169 172
-2.162144e-01 -6.081056e-02 -2.740803e+00 186 183 178
5.542406e-01 -7.254942e-02 -2.756287e+00 152 147 137
6.859866e-01 -7.119085e-02 -2.699999e+00 178 149 145
7.634675e-01 -8.006652e-02 -2.639921e+00 247 250 250
6.030552e-01 -9.910402e-02 -2.752607e+00 94 85 79
6.199991e-01 -1.135521e-01 -2.753842e+00 88 79 83
6.084638e-01 -1.164210e-01 -2.752843e+00 159 149 139
6.010955e-01 -1.162861e-01 -2.751587e+00 158 153 124
-6.115069e-01 -1.319154e-01 -2.781145e+00 34 33 30
-5.633556e-02 -1.065696e-01 -2.697224e+00 166 165 162
-3.629844e-01 -1.250595e-01 -2.732034e+00 47 51 60
6.458010e-01 -1.413004e-01 -2.757121e+00 180 174 148
-2.056869e-01 -1.334653e-01 -2.735384e+00 182 178 169
-4.079515e-01 -1.478797e-01 -2.746966e+00 161 136 116
6.413416e-01 -1.570214e-01 -2.745863e+00 225 222 213
7.193160e-01 -1.341516e-01 -2.624061e+00 235 246 248
-8.090503e-02 -1.450105e-01 -2.693119e+00 171 176 179
9.803406e-01 -1.970248e-01 -2.761388e+00 196 187 175
9.803406e-01 -1.970248e-01 -2.761388e+00 196 187 175
2.662713e-01 -1.435570e-01 -2.647570e+00 192 186 186
-3.947928e-01 -1.850779e-01 -2.720042e+00 27 30 36
-9.838848e-02 -1.740652e-01 -2.689486e+00 41 49 59
6.112349e-01 -2.100386e-01 -2.740545e+00 54 58 59
-5.071979e-01 -2.178456e-01 -2.752670e+00 79 79 84
-4.862332e-01 -2.202825e-01 -2.753967e+00 57 50 55
1.291781e-01 -1.632112e-01 -2.577709e+00 105 111 122
-2.934486e-01 -2.146996e-01 -2.725644e+00 185 181 180
-2.881685e-01 -2.182506e-01 -2.727343e+00 178 174 171
-3.407734e-01 -2.198060e-01 -2.714135e+00 152 149 156
2.391960e-01 -1.925290e-01 -2.638618e+00 155 151 140
-4.390052e-01 -2.454111e-01 -2.714285e+00 170 175 156
9.123736e-01 -2.628033e-01 -2.676253e+00 231 232 221
-2.957022e-01 -2.460380e-01 -2.723129e+00 205 203 211
-4.453964e-01 -2.588000e-01 -2.712265e+00 157 153 152
3.164147e-01 -2.490853e-01 -2.725706e+00 91 89 86
8.888129e-01 -2.895833e-01 -2.706813e+00 252 252 251
-2.695748e-01 -2.802309e-01 -2.694601e+00 183 177 180
8.851864e-01 -3.083148e-01 -2.662876e+00 232 233 226
8.851864e-01 -3.083148e-01 -2.662876e+00 232 233 226
9.067172e-01 -3.351220e-01 -2.678487e+00 81 88 94
-4.080515e-01 -3.151364e-01 -2.709764e+00 122 118 117
7.172732e-01 -3.238754e-01 -2.690274e+00 209 208 211
5.024140e-01 -3.315934e-01 -2.730602e+00 158 160 155
5.024140e-01 -3.315934e-01 -2.730602e+00 158 160 155
6.789572e-01 -3.467646e-01 -2.689564e+00 195 191 185
-2.155105e-01 -2.934038e-01 -2.611531e+00 80 33 53
9.044969e-01 -3.631613e-01 -2.647648e+00 145 158 193
6.665461e-01 -3.493863e-01 -2.682065e+00 200 193 185
5.224835e-02 -3.046610e-01 -2.647288e+00 151 147 144
6.808059e-01 -3.484934e-01 -2.645432e+00 201 196 196
-2.995204e-01 -3.500151e-01 -2.634641e+00 146 147 151
-1.623976e-01 -3.389193e-01 -2.620143e+00 77 39 74
-2.026394e-01 -3.478106e-01 -2.630905e+00 145 158 149
-1.673535e-01 -3.386355e-01 -2.610685e+00 66 54 73
-1.610291e-01 -3.433763e-01 -2.613165e+00 59 86 123
6.485869e-01 -4.483030e-01 -2.739532e+00 181 178 169
-2.997559e-01 -3.814125e-01 -2.619995e+00 33 36 41
-1.787739e-01 -3.765187e-01 -2.627347e+00 37 36 67
-4.060023e-01 -4.062575e-01 -2.611688e+00 37 44 71
4.896087e-01 -4.775352e-01 -2.739878e+00 166 164 145
2.098435e-01 -4.196114e-01 -2.656925e+00 172 181 182
-3.546856e-01 -4.268688e-01 -2.613333e+00 179 175 176
-3.562923e-01 -4.619258e-01 -2.617215e+00 148 146 147
-4.935474e-01 -4.955175e-01 -2.605240e+00 203 201 204
4.336181e-01 -5.103566e-01 -2.678109e+00 206 202 194
1.638381e-01 -4.915274e-01 -2.671496e+00 32 35 19
5.304983e-02 -5.021230e-01 -2.685143e+00 18 23 29
-8.249010e-02 -4.812286e-01 -2.625993e+00 49 44 48
1.745425e-01 -5.047583e-01 -2.672312e+00 43 38 22
2.231193e-01 -5.082233e-01 -2.675106e+00 104 114 86
2.231193e-01 -5.082233e-01 -2.675106e+00 104 114 86
-3.109080e-01 -4.964581e-01 -2.610293e+00 192 192 195
3.107302e-02 -5.270884e-01 -2.690335e+00 178 180 160
4.104568e-02 -5.217164e-01 -2.681260e+00 163 164 167
-3.406641e-01 -5.081681e-01 -2.605758e+00 145 150 160
6.997648e-01 -6.346904e-01 -2.782645e+00 148 149 151
4.535035e-01 -5.126601e-01 -2.621394e+00 93 83 85
4.535035e-01 -5.126601e-01 -2.621394e+00 93 83 85
5.317833e-01 -5.389060e-01 -2.633754e+00 23 35 34
2.879671e-01 -5.700096e-01 -2.699787e+00 115 123 95
3.611178e-01 -5.585617e-01 -2.671069e+00 165 151 137
4.273617e-01 -5.356182e-01 -2.620131e+00 40 45 58
-3.276118e-01 -5.305143e-01 -2.589598e+00 182 194 197
1.425090e-02 -5.555085e-01 -2.676457e+00 159 156 146
-3.146008e-01 -5.807908e-01 -2.666796e+00 82 80 81
1.562615e-01 -5.747822e-01 -2.694987e+00 176 150 145
1.108661e-01 -5.842348e-01 -2.691669e+00 158 158 161
-2.751026e-02 6.743428e-01 -2.832968e+00 210 186 180
3.332568e-01 6.401900e-01 -2.738895e+00 101 85 93
2.628308e-02 6.693864e-01 -2.852707e+00 51 50 55
2.777183e-01 6.722846e-01 -2.855751e+00 45 47 45
-2.917334e-01 6.393009e-01 -2.745628e+00 27 40 49
2.664446e-01 6.597013e-01 -2.856247e+00 53 53 61
3.013044e-01 6.539133e-01 -2.852969e+00 149 150 110
3.042381e-01 6.507899e-01 -2.852521e+00 47 47 47
2.804764e-01 6.418578e-01 -2.846057e+00 200 54 93
1.180349e-01 6.069221e-01 -2.831945e+00 189 139 148
1.117481e-01 6.082501e-01 -2.847826e+00 168 160 152
6.538883e-01 6.096106e-01 -2.728505e+00 248 245 242
-6.169688e-02 6.043041e-01 -2.854835e+00 58 64 67
-4.354597e-02 6.030933e-01 -2.854946e+00 86 85 94
-3.889527e-01 5.778748e-01 -2.734246e+00 64 95 98
5.648581e-01 5.767346e-01 -2.753469e+00 225 217 212
2.383938e-01 5.670262e-01 -2.837270e+00 165 164 166
2.849937e-01 5.497201e-01 -2.793106e+00 90 91 100
3.942595e-03 5.551455e-01 -2.836776e+00 171 168 156
1.890540e-01 5.532213e-01 -2.833039e+00 67 68 73
-8.275914e-02 5.565279e-01 -2.832660e+00 32 44 61
2.723752e-01 5.371518e-01 -2.790305e+00 123 123 131
-9.507945e-02 5.545203e-01 -2.842037e+00 47 55 60
2.268002e-01 5.448750e-01 -2.832947e+00 162 160 155
-1.036148e-01 5.448534e-01 -2.838157e+00 53 61 74
2.818382e-01 5.241843e-01 -2.785437e+00 205 200 197
-1.778781e-01 5.464786e-01 -2.840929e+00 33 38 42
-5.280206e-01 5.477266e-01 -2.728952e+00 136 135 142
-5.280206e-01 5.477266e-01 -2.728952e+00 136 135 142
-3.838684e-01 5.214177e-01 -2.825136e+00 14 17 26
-5.370819e-01 5.115555e-01 -2.719126e+00 37 28 40
-5.370819e-01 5.115555e-01 -2.719126e+00 37 28 40
-5.333735e-01 5.050350e-01 -2.716298e+00 85 79 73
-3.781368e-01 5.123928e-01 -2.826837e+00 23 26 35
-4.070411e-01 5.147267e-01 -2.829962e+00 28 31 36
-4.070411e-01 5.147267e-01 -2.829962e+00 28 31 36
-9.752190e-02 4.876622e-01 -2.828479e+00 151 148 157
1.872715e-01 4.737047e-01 -2.807092e+00 193 178 159
1.872715e-01 4.737047e-01 -2.807092e+00 193 178 159
-3.780551e-01 4.981400e-01 -2.825579e+00 14 18 27
7.286566e-01 4.913375e-01 -2.734017e+00 142 123 118
5.330199e-01 4.822889e-01 -2.810727e+00 64 68 79
-3.136287e-01 4.488405e-01 -2.757078e+00 21 24 17
1.697055e-01 4.324447e-01 -2.777412e+00 168 164 161
2.471461e-01 4.408878e-01 -2.821475e+00 59 52 42
-1.886375e-02 4.369093e-01 -2.816937e+00 143 133 123
2.621257e-01 4.276289e-01 -2.820384e+00 154 156 150
1.674481e-01 4.040515e-01 -2.766288e+00 181 180 175
4.821105e-01 4.254475e-01 -2.790960e+00 23 23 31
1.630872e-01 4.029037e-01 -2.766831e+00 151 148 143
-5.154457e-01 4.227855e-01 -2.734420e+00 51 53 74
4.571460e-01 4.038732e-01 -2.774760e+00 30 32 35
-6.051730e-01 4.325883e-01 -2.741256e+00 192 198 193
1.936358e-01 3.858639e-01 -2.766939e+00 120 118 126
-2.078636e-01 3.994032e-01 -2.792213e+00 163 174 178
5.012806e-01 4.091628e-01 -2.809090e+00 132 125 106
-5.251098e-01 4.110715e-01 -2.729101e+00 68 72 85
4.824863e-01 3.936143e-01 -2.801634e+00 175 171 174
-1.358289e-03 3.701771e-01 -2.799564e+00 54 59 70
3.079304e-01 3.578668e-01 -2.765165e+00 203 213 215
-3.087168e-01 3.795178e-01 -2.827596e+00 41 42 47
4.824101e-01 3.729003e-01 -2.808310e+00 41 53 40
3.690983e-02 3.464476e-01 -2.799421e+00 144 130 114
-4.515104e-01 3.710799e-01 -2.826214e+00 15 20 23
9.514634e-02 3.306261e-01 -2.744978e+00 159 161 166
-4.494764e-01 3.469981e-01 -2.827016e+00 34 30 31
-2.855851e-02 3.130381e-01 -2.784880e+00 55 71 68
-2.848147e-01 3.219755e-01 -2.813221e+00 70 65 65
4.397553e-01 3.054215e-01 -2.788382e+00 190 181 167
-3.304445e-01 3.079271e-01 -2.814128e+00 59 49 58
-2.651643e-01 2.961013e-01 -2.811095e+00 172 156 156
2.709262e-01 2.833613e-01 -2.775869e+00 185 179 173
-4.850490e-01 3.086721e-01 -2.824934e+00 29 28 33
2.027080e-01 2.435884e-01 -2.766507e+00 40 46 40
-4.129975e-01 2.583635e-01 -2.810567e+00 187 171 158
-1.155947e-01 2.166301e-01 -2.558147e+00 147 150 150
-2.956281e-01 2.422250e-01 -2.799921e+00 52 51 52
-2.956281e-01 2.422250e-01 -2.799921e+00 52 51 52
-7.381044e-02 2.009807e-01 -2.572671e+00 151 151 153
-4.687452e-01 2.312146e-01 -2.804516e+00 75 78 71
-6.845360e-02 1.989745e-01 -2.572139e+00 158 156 159
-4.176167e-01 2.203619e-01 -2.803570e+00 36 31 37
-1.038825e+00 2.675075e-01 -2.904606e+00 67 66 62
-1.114937e+00 2.651171e-01 -2.914029e+00 139 123 98
-5.685515e-01 2.184056e-01 -2.812042e+00 24 25 29
-1.316118e-01 1.831170e-01 -2.564538e+00 126 133 143
-1.316118e-01 1.831170e-01 -2.564538e+00 126 133 143
-8.689188e-01 2.359894e-01 -2.817889e+00 57 61 57
4.733634e-01 1.969217e-01 -2.771160e+00 129 121 104
-4.044729e-01 2.018517e-01 -2.796859e+00 46 45 45
-7.792949e-02 1.790744e-01 -2.567417e+00 147 149 151
-9.060895e-01 2.186695e-01 -2.812316e+00 48 49 36
-8.308573e-02 1.669004e-01 -2.564557e+00 138 136 139
-1.047115e+00 2.260742e-01 -2.899814e+00 89 80 66
4.595703e-01 1.750249e-01 -2.765039e+00 79 80 81
4.011341e-01 1.647485e-01 -2.770570e+00 51 53 49
-5.780195e-01 1.774377e-01 -2.781791e+00 20 24 31
-6.088597e-01 1.781687e-01 -2.773205e+00 39 44 56
-4.442752e-01 1.680347e-01 -2.716190e+00 164 160 158
-8.348085e-01 1.832791e-01 -2.841829e+00 164 177 181
-4.098396e-02 1.433540e-01 -2.560333e+00 167 168 171
-8.325352e-01 1.741858e-01 -2.846152e+00 52 53 75
-4.067093e-01 1.445827e-01 -2.713432e+00 154 150 147
-6.423691e-02 1.239332e-01 -2.555919e+00 160 163 164
-5.945887e-01 1.303767e-01 -2.798735e+00 124 118 107
3.266526e-01 1.082415e-01 -2.755507e+00 138 139 100
-4.304826e-01 1.131597e-01 -2.704612e+00 155 151 149
5.321958e-02 1.073588e-01 -2.557654e+00 171 170 166
-6.987526e-01 1.121982e-01 -2.749928e+00 93 92 97
4.864958e-01 9.688171e-02 -2.769952e+00 96 97 94
-9.901600e-01 1.065401e-01 -2.850944e+00 36 33 37
-7.759693e-01 9.898930e-02 -2.752856e+00 145 135 150
-3.944589e-01 9.150369e-02 -2.655375e+00 178 178 177
-3.972131e-01 8.873730e-02 -2.654515e+00 187 185 180
7.532223e-01 5.586116e-02 -2.738819e+00 195 192 194
-7.090140e-01 5.921140e-02 -2.747570e+00 41 41 45
-2.292341e-01 2.810727e-02 -2.753229e+00 171 169 160
3.728439e-02 3.632333e-02 -2.583145e+00 52 69 99
-4.617228e-01 2.295976e-02 -2.684031e+00 49 37 54
4.846259e-01 2.737073e-03 -2.748921e+00 100 98 73
7.669980e-01 8.913266e-03 -2.665285e+00 242 244 235
7.669980e-01 8.913266e-03 -2.665285e+00 242 244 235
7.035294e-01 -5.331908e-03 -2.756736e+00 67 72 74
6.973000e-01 -1.667839e-02 -2.736164e+00 217 226 212
6.980569e-01 -1.675257e-02 -2.727542e+00 181 168 162
5.265718e-01 -1.823326e-02 -2.729202e+00 189 163 150
-4.251997e-01 -2.507482e-02 -2.679292e+00 36 20 28
6.612846e-01 -5.003190e-02 -2.716306e+00 157 137 130
8.281346e-01 -5.817321e-02 -2.676426e+00 249 251 249
4.385938e-01 -7.295890e-02 -2.752648e+00 118 113 114
7.410081e-01 -8.076341e-02 -2.678261e+00 153 155 166
6.052044e-01 -1.138465e-01 -2.753917e+00 64 59 56
-6.053155e-01 -1.398047e-01 -2.778837e+00 133 123 109
6.433976e-01 -1.450702e-01 -2.749915e+00 220 218 191
1.220478e-01 -1.095439e-01 -2.613917e+00 148 149 155
3.742244e-01 -1.446448e-01 -2.738492e+00 150 157 153
6.704019e-01 -1.491278e-01 -2.703736e+00 142 112 129
7.066271e-01 -1.403251e-01 -2.641390e+00 195 189 187
1.651856e-01 -1.176922e-01 -2.606332e+00 26 42 56
1.398958e-01 -1.469124e-01 -2.609179e+00 150 151 153
6.164043e-01 -2.225777e-01 -2.737822e+00 174 167 152
7.061307e-01 -2.026378e-01 -2.623036e+00 201 201 210
9.184289e-01 -2.442188e-01 -2.716105e+00 77 72 89
9.238590e-01 -3.116299e-01 -2.670518e+00 91 96 96
-2.003293e-01 -2.625889e-01 -2.636146e+00 170 167 169
6.232540e-02 -2.859072e-01 -2.647807e+00 191 186 183
9.111078e-01 -3.566656e-01 -2.658135e+00 247 249 254
-1.173440e-01 -3.052322e-01 -2.658746e+00 63 66 73
-1.277873e-01 -3.181365e-01 -2.628219e+00 84 80 103
-1.807986e-01 -3.256241e-01 -2.612881e+00 132 52 103
-7.384451e-02 -3.618526e-01 -2.709119e+00 100 104 71
3.400335e-01 -3.330125e-01 -2.631833e+00 32 40 49
-1.695910e-01 -3.357791e-01 -2.610552e+00 88 73 108
-1.695910e-01 -3.357791e-01 -2.610552e+00 88 73 108
-4.013884e-01 -3.604514e-01 -2.613394e+00 60 68 71
-4.085003e-01 -3.995424e-01 -2.614551e+00 45 66 46
-4.358876e-01 -4.028789e-01 -2.609348e+00 183 182 169
-1.127693e-01 -4.485077e-01 -2.689837e+00 41 36 40
2.337903e-01 -4.338771e-01 -2.665977e+00 86 71 79
2.379447e-01 -4.351067e-01 -2.661356e+00 113 132 142
1.401169e-01 -4.438422e-01 -2.658594e+00 95 103 80
2.402420e-03 -4.676576e-01 -2.700111e+00 19 22 29
2.343714e-01 -4.415470e-01 -2.642268e+00 174 187 194
-9.442819e-02 -4.661941e-01 -2.659875e+00 46 44 47
-5.741838e-02 -4.963096e-01 -2.692832e+00 18 19 24
-2.686013e-01 -4.761509e-01 -2.612104e+00 64 65 70
-4.681616e-01 -4.961506e-01 -2.594787e+00 36 35 44
5.216829e-01 -5.265862e-01 -2.631411e+00 36 36 62
1.383754e-01 -5.419712e-01 -2.700824e+00 175 170 162
-1.014224e-01 -4.757951e-01 -2.569846e+00 66 60 67
5.106136e-02 -5.384955e-01 -2.661251e+00 140 140 140
5.106136e-02 -5.384955e-01 -2.661251e+00 140 140 140
3.699742e-01 -5.555890e-01 -2.662231e+00 188 164 165
5.004259e-02 -5.543301e-01 -2.665554e+00 111 115 117
3.538908e-01 -5.731454e-01 -2.674199e+00 176 171 158
9.020676e-02 -5.790288e-01 -2.688725e+00 152 149 144
5.738949e-02 -5.638396e-01 -2.662394e+00 164 163 161
1.291683e-01 -5.858953e-01 -2.691460e+00 226 231 211
6.194953e-01 6.794972e-01 -2.774990e+00 178 179 170
1.645404e-01 6.533921e-01 -2.839667e+00 149 148 156
1.938076e-01 6.478292e-01 -2.826789e+00 140 110 102
1.593771e-01 6.526157e-01 -2.845551e+00 250 245 245
1.723884e-01 6.495321e-01 -2.840159e+00 134 130 143
1.557017e-01 6.471759e-01 -2.847606e+00 89 74 52
2.506620e-01 6.398091e-01 -2.853373e+00 184 175 173
1.705213e-01 6.304273e-01 -2.845520e+00 185 177 163
6.556284e-01 6.313041e-01 -2.728877e+00 87 87 116
1.605517e-01 6.192465e-01 -2.842050e+00 171 180 186
3.053036e-01 6.168293e-01 -2.844017e+00 242 236 219
2.186076e-01 6.139113e-01 -2.847521e+00 90 86 89
-8.856986e-02 6.064513e-01 -2.849858e+00 41 45 56
2.700885e-01 6.018076e-01 -2.844396e+00 197 45 91
-8.328422e-02 5.998383e-01 -2.850729e+00 55 60 67
-7.057037e-02 5.846148e-01 -2.851190e+00 83 87 96
5.536287e-01 5.827461e-01 -2.773739e+00 180 178 184
1.825853e-02 5.463306e-01 -2.825607e+00 49 41 41
-4.321792e-01 5.503065e-01 -2.727424e+00 68 107 112
6.505786e-03 5.446229e-01 -2.833933e+00 170 169 165
1.136985e-02 5.387864e-01 -2.827147e+00 43 34 37
2.618530e-01 5.248805e-01 -2.779587e+00 135 133 142
6.133689e-01 5.262848e-01 -2.749148e+00 96 86 85
6.323110e-01 5.202555e-01 -2.741802e+00 239 232 229
6.165601e-01 5.176778e-01 -2.755984e+00 195 216 222
-3.571197e-01 5.255536e-01 -2.828757e+00 50 62 82
-5.617655e-01 5.194851e-01 -2.723665e+00 36 30 34
-4.097574e-01 5.216734e-01 -2.833385e+00 17 18 23
-4.451357e-01 4.867558e-01 -2.705389e+00 94 84 83
-2.077400e-01 4.765238e-01 -2.771662e+00 134 137 128
-2.077400e-01 4.765238e-01 -2.771662e+00 134 137 128
-3.742001e-01 5.046645e-01 -2.825863e+00 14 19 25
-3.643178e-02 4.692976e-01 -2.818041e+00 176 166 154
1.574539e-01 4.560593e-01 -2.777895e+00 142 141 139
-1.746639e-01 4.549106e-01 -2.799897e+00 177 179 188
1.111431e-01 4.351985e-01 -2.772318e+00 150 149 145
7.510565e-02 4.303591e-01 -2.770025e+00 127 122 119
4.472678e-01 4.125535e-01 -2.774085e+00 180 170 172
-6.279899e-01 4.470708e-01 -2.747205e+00 57 41 65
-5.785573e-01 4.333751e-01 -2.738659e+00 181 171 160
-5.370268e-01 4.058142e-01 -2.727380e+00 183 181 170
7.365418e-01 4.015789e-01 -2.711236e+00 252 254 253
-3.254182e-01 3.877336e-01 -2.828109e+00 24 23 28
-9.190818e-02 3.571318e-01 -2.773999e+00 186 180 175
4.772031e-01 3.719688e-01 -2.808165e+00 45 48 48
-3.087433e-01 3.744909e-01 -2.827671e+00 95 94 95
-4.446954e-01 3.755888e-01 -2.821981e+00 15 20 23
-1.490241e-01 3.363981e-01 -2.783706e+00 166 173 179
1.063077e-01 3.228597e-01 -2.743096e+00 159 162 167
-4.327202e-01 3.597775e-01 -2.830073e+00 163 152 138
-4.729945e-01 3.592027e-01 -2.807666e+00 19 24 24
-1.147642e-01 3.198590e-01 -2.775356e+00 157 168 175
-3.117798e-01 3.009259e-01 -2.811953e+00 51 46 43
-2.516073e-01 2.954467e-01 -2.807780e+00 58 145 208
8.237627e-02 2.816613e-01 -2.783499e+00 123 110 91
-2.457081e-01 2.857770e-01 -2.796481e+00 26 44 79
1.884672e-01 2.721554e-01 -2.770270e+00 80 91 57
-7.621395e-02 2.460273e-01 -2.581050e+00 164 160 156
3.863788e-01 2.660096e-01 -2.775844e+00 156 155 152
1.641365e-01 2.518712e-01 -2.764820e+00 27 28 32
-4.552500e-01 2.707208e-01 -2.813850e+00 179 163 148
-4.552500e-01 2.707208e-01 -2.813850e+00 179 163 148
3.934947e-01 2.494842e-01 -2.781568e+00 49 50 56
-3.004680e-01 2.449614e-01 -2.800265e+00 163 150 133
-4.414223e-01 2.408888e-01 -2.807473e+00 176 166 155
-3.464118e-01 2.309688e-01 -2.800836e+00 26 25 23
-5.032550e-01 2.391617e-01 -2.810988e+00 147 139 127
-8.212166e-01 2.624367e-01 -2.831870e+00 102 101 103
-4.880847e-01 2.325712e-01 -2.809250e+00 136 131 112
-8.814620e-02 1.984872e-01 -2.570119e+00 149 150 146
-1.390991e-02 1.963826e-01 -2.573111e+00 144 144 144
-8.985197e-01 2.448507e-01 -2.811124e+00 37 39 34
-4.074754e-01 2.059943e-01 -2.798414e+00 175 167 158
-1.051613e+00 2.515843e-01 -2.906388e+00 66 61 53
-5.647955e-01 2.028367e-01 -2.807131e+00 33 35 43
4.255247e-01 1.704042e-01 -2.774562e+00 209 205 202
4.255247e-01 1.704042e-01 -2.774562e+00 209 205 202
-1.031806e+00 2.123365e-01 -2.897511e+00 145 137 110
6.173193e-01 1.713804e-01 -2.763932e+00 214 208 177
-8.656099e-01 1.969697e-01 -2.836976e+00 14 25 31
-1.156743e+00 2.029913e-01 -2.909136e+00 32 30 40
-8.322771e-01 1.823275e-01 -2.849260e+00 42 41 50
-2.793643e-02 1.460795e-01 -2.564071e+00 130 130 132
3.847365e-01 1.387745e-01 -2.761802e+00 122 120 112
3.948711e-02 1.267418e-01 -2.560606e+00 141 143 142
-2.584521e-02 1.223514e-01 -2.554708e+00 131 131 133
-3.373785e-01 1.263871e-01 -2.663711e+00 128 128 130
-4.596817e-01 1.147855e-01 -2.713225e+00 154 152 155
-3.628678e-01 1.024791e-01 -2.661601e+00 111 112 117
2.321516e-01 9.485203e-02 -2.706603e+00 90 96 62
-6.546374e-01 1.057920e-01 -2.752837e+00 34 25 23
-9.921508e-01 1.009897e-01 -2.848308e+00 71 69 72
-3.889416e-01 8.989859e-02 -2.652453e+00 113 113 117
-4.194119e-01 7.693652e-02 -2.658951e+00 148 146 150
-4.030552e-01 7.540858e-02 -2.653914e+00 112 112 114
3.512882e-01 5.116780e-02 -2.748122e+00 145 143 104
-9.231837e-01 5.978684e-02 -2.770561e+00 59 64 68
-2.841629e-01 4.965087e-02 -2.755835e+00 155 152 151
-7.983897e-01 5.669580e-02 -2.739787e+00 19 20 32
3.623382e-01 4.250401e-02 -2.744158e+00 152 150 110
2.990362e-01 3.987493e-02 -2.701448e+00 118 125 89
-4.048362e-01 4.487078e-02 -2.656014e+00 167 167 169
4.797472e-01 -1.083271e-02 -2.751902e+00 171 158 149
1.950191e-02 -1.716412e-02 -2.573640e+00 166 165 170
1.950191e-02 -1.716412e-02 -2.573640e+00 166 165 170
-5.730987e-01 -5.281540e-02 -2.781296e+00 13 14 19
4.639804e-01 -5.858915e-02 -2.746329e+00 177 163 164
6.251813e-01 -7.025318e-02 -2.734253e+00 117 124 141
6.857692e-01 -6.635449e-02 -2.703278e+00 178 149 137
-3.306475e-01 -7.281565e-02 -2.743055e+00 191 190 193
-4.309303e-01 -8.209237e-02 -2.713031e+00 144 157 136
7.407964e-01 -8.078437e-02 -2.678603e+00 152 153 168
7.355674e-01 -8.732713e-02 -2.677063e+00 142 145 162
-2.616093e-01 -1.063381e-01 -2.734948e+00 186 185 183
7.171792e-01 -1.135437e-01 -2.658580e+00 122 112 131
1.204023e-01 -9.246259e-02 -2.621865e+00 32 26 30
1.380162e-01 -1.116259e-01 -2.615361e+00 51 66 71
3.837413e-01 -1.457511e-01 -2.737998e+00 148 148 148
6.632373e-01 -1.644138e-01 -2.691958e+00 118 124 137
6.580974e-01 -1.709328e-01 -2.690350e+00 127 139 146
-2.284694e-01 -1.841973e-01 -2.730084e+00 195 192 188
-4.512676e-02 -1.727154e-01 -2.692590e+00 161 168 176
6.262166e-01 -1.999061e-01 -2.744703e+00 146 138 127
-4.980953e-01 -2.152111e-01 -2.754590e+00 35 30 38
9.414909e-01 -2.281964e-01 -2.695497e+00 185 161 134
9.414909e-01 -2.281964e-01 -2.695497e+00 185 161 134
6.310351e-01 -2.165083e-01 -2.719425e+00 60 59 68
-5.853489e-02 -2.107722e-01 -2.684749e+00 32 35 40
6.580563e-01 -2.467163e-01 -2.710196e+00 175 121 126
6.580563e-01 -2.467163e-01 -2.710196e+00 175 121 126
-2.715947e-01 -2.404598e-01 -2.721173e+00 193 190 185
-4.542361e-01 -2.488245e-01 -2.711876e+00 119 119 121
-2.644392e-01 -2.465587e-01 -2.724468e+00 184 181 182
8.804675e-01 -2.733617e-01 -2.707644e+00 117 107 113
8.804675e-01 -2.733617e-01 -2.707644e+00 117 107 113
-2.592603e-01 -2.486509e-01 -2.720204e+00 48 44 58
5.886521e-01 -2.606666e-01 -2.711056e+00 123 83 70
-4.471580e-01 -2.641118e-01 -2.709680e+00 91 86 83
-3.687239e-01 -2.679839e-01 -2.710307e+00 125 121 120
8.834930e-01 -2.948676e-01 -2.701684e+00 229 234 227
9.438344e-01 -3.037430e-01 -2.687380e+00 38 36 58
7.529991e-01 -3.078595e-01 -2.745809e+00 41 42 65
7.302413e-01 -3.223883e-01 -2.729230e+00 114 119 113
1.404194e-01 -2.659531e-01 -2.655139e+00 183 177 165
-2.785209e-01 -2.965891e-01 -2.626072e+00 46 47 50
6.735542e-01 -3.455299e-01 -2.702581e+00 59 68 86
-2.434943e-01 -3.070230e-01 -2.633037e+00 42 47 59
6.592330e-01 -3.550255e-01 -2.699621e+00 58 65 84
6.592330e-01 -3.550255e-01 -2.699621e+00 58 65 84
6.886799e-01 -3.486338e-01 -2.645725e+00 215 214 222
6.945472e-01 -3.470219e-01 -2.640107e+00 44 49 79
6.805683e-01 -3.522930e-01 -2.642648e+00 205 202 211
6.864656e-01 -3.510570e-01 -2.638049e+00 34 39 80
2.271321e-01 -3.404420e-01 -2.685591e+00 70 64 65
-5.333985e-03 -3.619140e-01 -2.710067e+00 42 38 47
-2.826347e-01 -3.481251e-01 -2.631528e+00 154 158 161
6.331850e-01 -4.178828e-01 -2.738618e+00 177 172 167
-2.296865e-01 -3.905624e-01 -2.629203e+00 151 148 158
-4.057195e-01 -4.052860e-01 -2.616408e+00 140 142 136
1.474802e-01 -4.093416e-01 -2.676319e+00 49 55 48
-5.659874e-01 -4.551495e-01 -2.606875e+00 192 192 187
2.375855e-01 -4.312882e-01 -2.667195e+00 206 195 180
-3.574674e-01 -4.363453e-01 -2.619590e+00 173 169 169
2.705802e-02 -4.495725e-01 -2.697551e+00 25 26 31
-3.590399e-01 -4.392512e-01 -2.615393e+00 150 145 148
1.098998e-01 -4.424347e-01 -2.671690e+00 115 113 97
2.285058e-01 -4.446462e-01 -2.658594e+00 18 35 38
-4.564903e-01 -4.771210e-01 -2.626989e+00 13 22 37
2.382567e-01 -4.429025e-01 -2.632211e+00 197 196 209
-2.742935e-01 -4.671215e-01 -2.626746e+00 46 46 56
-3.151940e-01 -4.753706e-01 -2.608347e+00 100 100 100
-4.875486e-01 -5.161809e-01 -2.599061e+00 134 139 111
2.400144e-02 -5.348145e-01 -2.693493e+00 33 34 31
4.673323e-01 -5.170901e-01 -2.624014e+00 30 35 38
-3.074476e-01 -5.121085e-01 -2.607126e+00 19 21 36
-9.050739e-02 -4.781014e-01 -2.584591e+00 22 21 27
-3.390364e-01 -5.195448e-01 -2.593276e+00 30 37 68
-3.390364e-01 -5.195448e-01 -2.593276e+00 30 37 68
5.196069e-01 -5.426626e-01 -2.631190e+00 131 127 125
4.340043e-01 -5.267116e-01 -2.617205e+00 97 89 85
3.914262e-01 -5.427148e-01 -2.649945e+00 152 151 134
4.110827e-01 -5.346670e-01 -2.633446e+00 160 134 133
4.516935e-01 -5.397398e-01 -2.622386e+00 142 143 145
4.086639e-01 -5.364756e-01 -2.622771e+00 70 61 69
2.015748e-01 -5.566380e-01 -2.673883e+00 164 123 100
1.593326e-01 -5.919682e-01 -2.699076e+00 178 161 148
1.593326e-01 -5.919682e-01 -2.699076e+00 178 161 148
1.486762e-01 6.549239e-01 -2.858866e+00 186 171 167
5.107781e-01 6.431019e-01 -2.764002e+00 225 219 227
3.620671e-02 6.493253e-01 -2.850958e+00 61 60 72
1.777829e-01 6.359841e-01 -2.852216e+00 91 78 71
-6.844177e-02 6.016807e-01 -2.854715e+00 57 62 71
6.426669e-01 6.010084e-01 -2.767633e+00 237 232 218
2.498292e-01 5.691253e-01 -2.839445e+00 184 180 177
2.226809e-01 5.636930e-01 -2.837212e+00 178 177 173
-5.046083e-01 5.427696e-01 -2.724358e+00 96 80 81
2.365378e-01 5.243591e-01 -2.825172e+00 175 172 167
-4.346776e-01 5.263935e-01 -2.721063e+00 152 148 141
1.092648e-01 4.769848e-01 -2.783683e+00 190 189 185
2.125333e-01 4.797798e-01 -2.810188e+00 185 171 158
3.690559e-02 4.520376e-01 -2.771553e+00 159 158 156
3.212224e-02 4.454517e-01 -2.765263e+00 171 167 164
5.411691e-01 4.733334e-01 -2.805392e+00 170 155 151
-2.392266e-01 4.575877e-01 -2.812277e+00 34 33 38
-2.939686e-01 4.422647e-01 -2.756982e+00 18 18 15
5.658314e-01 4.529403e-01 -2.795874e+00 195 187 174
6.056371e-01 4.417544e-01 -2.753819e+00 104 94 110
-2.661337e-01 4.019198e-01 -2.832752e+00 91 82 76
2.467588e-02 3.826271e-01 -2.805026e+00 52 50 47
7.533654e-01 4.015179e-01 -2.715141e+00 224 228 232
-3.532334e-01 3.905512e-01 -2.828252e+00 41 42 44
4.690002e-01 3.796441e-01 -2.803707e+00 140 133 131
-4.935547e-01 3.992812e-01 -2.810183e+00 29 30 34
-4.374752e-01 3.853672e-01 -2.821194e+00 19 23 26
-3.487095e-01 3.786112e-01 -2.826824e+00 39 38 35
-4.889971e-02 3.373627e-01 -2.788643e+00 165 163 155
4.684052e-01 3.468469e-01 -2.798433e+00 39 33 35
-2.077734e-01 3.220765e-01 -2.816120e+00 173 157 142
3.309380e-01 3.148262e-01 -2.789563e+00 55 60 64
3.379798e-01 3.116204e-01 -2.798117e+00 193 192 187
1.748361e-01 2.989940e-01 -2.775452e+00 150 141 130
1.994296e-01 2.633915e-01 -2.762037e+00 75 96 57
1.917128e-01 2.630115e-01 -2.768312e+00 120 140 100
3.949402e-01 2.658189e-01 -2.782082e+00 87 90 84
-4.313346e-01 2.802567e-01 -2.815094e+00 172 154 145
-2.344092e-01 2.560173e-01 -2.797259e+00 173 159 148
-2.720046e-01 2.516731e-01 -2.804882e+00 172 153 144
-4.558506e-01 2.491785e-01 -2.803876e+00 41 51 35
-5.414036e-01 2.534016e-01 -2.787042e+00 18 21 23
-5.414036e-01 2.534016e-01 -2.787042e+00 18 21 23
-5.152419e-01 2.208649e-01 -2.808300e+00 38 39 40
-1.065357e+00 2.551680e-01 -2.908112e+00 144 133 112
-3.916434e-02 1.773026e-01 -2.568109e+00 136 137 139
-5.478134e-01 1.947250e-01 -2.805516e+00 92 92 93
-1.078197e+00 2.196257e-01 -2.899072e+00 76 69 62
-1.078197e+00 2.196257e-01 -2.899072e+00 76 69 62
-9.326646e-01 2.048601e-01 -2.818518e+00 51 51 37
4.926147e-03 1.289182e-01 -2.561409e+00 132 133 135
-7.015067e-01 1.223892e-01 -2.746887e+00 105 102 112
-3.694913e-01 1.076972e-01 -2.656700e+00 113 114 117
3.269545e-01 9.813897e-02 -2.754948e+00 137 142 102
-7.808984e-01 1.071235e-01 -2.756117e+00 53 54 74
2.370538e-01 9.117071e-02 -2.707254e+00 38 44 32
2.370538e-01 9.117071e-02 -2.707254e+00 38 44 32
-6.601153e-01 1.024784e-01 -2.751933e+00 115 110 104
2.472579e-01 7.610748e-02 -2.703524e+00 108 119 79
2.864566e-01 6.820079e-02 -2.741031e+00 71 76 53
-2.913161e-01 6.101602e-02 -2.759960e+00 36 40 41
5.078482e-01 5.712313e-02 -2.716837e+00 154 130 103
-2.738224e-01 3.913636e-02 -2.754667e+00 174 171 167
1.299465e-01 4.748189e-02 -2.624915e+00 186 137 131
4.579855e-01 1.370995e-02 -2.757354e+00 173 172 170
-3.075104e-01 -3.068388e-02 -2.746611e+00 68 77 87
-2.219790e-01 -3.241583e-02 -2.735261e+00 42 37 39
4.573164e-01 -9.217947e-02 -2.743088e+00 113 115 73
7.206595e-01 -1.071871e-01 -2.672805e+00 126 102 99
-3.499091e-01 -1.419103e-01 -2.733958e+00 195 194 199
-4.143730e-01 -1.487234e-01 -2.745413e+00 23 19 25
6.486461e-01 -1.580399e-01 -2.695096e+00 204 215 221
5.368759e-01 -1.478593e-01 -2.662602e+00 156 160 137
1.127380e-01 -1.389466e-01 -2.609922e+00 20 21 25
6.706936e-01 -1.709189e-01 -2.620616e+00 191 179 186
-4.774281e-01 -2.209762e-01 -2.750295e+00 81 74 83
6.107413e-01 -2.186480e-01 -2.738693e+00 57 58 58
9.167470e-01 -2.379974e-01 -2.702371e+00 231 234 225
-7.514047e-02 -1.980649e-01 -2.688547e+00 32 38 44
9.323259e-01 -3.129340e-01 -2.679197e+00 128 134 129
-2.724497e-01 -2.992521e-01 -2.673462e+00 111 103 101
-3.646995e-02 -3.171978e-01 -2.707636e+00 158 146 132
2.292894e-01 -3.361858e-01 -2.695262e+00 190 173 156
5.806481e-01 -3.971508e-01 -2.732970e+00 147 152 155
5.806481e-01 -3.971508e-01 -2.732970e+00 147 152 155
-1.047171e-01 -3.667626e-01 -2.709936e+00 18 20 15
-1.500178e-01 -3.329171e-01 -2.617601e+00 133 142 148
6.792547e-01 -3.610704e-01 -2.605161e+00 123 135 145
-2.708714e-01 -3.521494e-01 -2.633191e+00 156 157 159
-4.910115e-01 -4.026843e-01 -2.696484e+00 20 21 25
7.883221e-01 -4.110775e-01 -2.626746e+00 245 244 241
-4.195771e-01 -3.889845e-01 -2.608805e+00 29 32 42
5.268989e-01 -4.427054e-01 -2.727123e+00 152 143 132
-5.610725e-01 -4.300475e-01 -2.607728e+00 23 26 35
1.541903e-01 -4.143921e-01 -2.671399e+00 23 25 20
-4.495824e-01 -4.755311e-01 -2.631361e+00 81 94 98
-9.577909e-02 -4.636125e-01 -2.669870e+00 14 14 19
-3.329469e-01 -4.549396e-01 -2.609635e+00 42 40 58
-3.732015e-01 -4.898203e-01 -2.610639e+00 162 156 163
4.526104e-01 -5.052673e-01 -2.622534e+00 132 126 127
4.614460e-01 -5.095533e-01 -2.622057e+00 38 39 46
-3.601065e-02 -5.243712e-01 -2.675217e+00 12 15 20
4.447547e-01 -5.129623e-01 -2.623972e+00 135 136 131
4.734724e-01 -5.248554e-01 -2.623306e+00 33 38 51
4.799917e-01 -5.340712e-01 -2.624230e+00 36 35 41
4.627915e-01 -5.331918e-01 -2.616500e+00 139 140 141
4.793385e-01 -5.426094e-01 -2.623127e+00 147 136 133
-9.426150e-02 -4.786271e-01 -2.550267e+00 89 72 78
4.331626e-01 -5.385716e-01 -2.620556e+00 190 189 184
4.417123e-01 -5.421185e-01 -2.621138e+00 143 147 148
-3.297886e-01 -5.378273e-01 -2.591358e+00 19 25 41
6.555796e-02 6.663045e-01 -2.853907e+00 59 58 71
2.927419e-01 6.475820e-01 -2.855484e+00 170 165 154
1.677581e-01 6.193407e-01 -2.841841e+00 76 75 77
2.670242e-01 6.247096e-01 -2.843215e+00 206 33 71
5.343508e-01 6.019423e-01 -2.756955e+00 135 111 120
5.375484e-01 5.833332e-01 -2.769159e+00 233 227 211
6.463241e-01 5.952329e-01 -2.761649e+00 59 54 59
5.681051e-01 5.718450e-01 -2.751961e+00 243 236 233
-1.341005e-01 5.681185e-01 -2.850615e+00 33 40 49
1.060095e-01 4.992084e-01 -2.788569e+00 185 184 182
3.317479e-01 4.602606e-01 -2.755184e+00 143 137 133
-5.594797e-01 4.690256e-01 -2.711071e+00 42 35 43
4.578782e-01 4.162745e-01 -2.775745e+00 32 31 40
3.201852e-01 3.908136e-01 -2.781119e+00 181 180 185
1.256497e-02 3.890459e-01 -2.809879e+00 59 66 72
6.525045e-02 3.094920e-01 -2.791165e+00 127 112 98
-2.670577e-01 2.945242e-01 -2.809911e+00 148 138 134
8.550926e-02 2.593149e-01 -2.781679e+00 43 50 58
2.175006e-01 2.382257e-01 -2.770571e+00 149 143 127
-4.529584e-01 2.565860e-01 -2.813372e+00 169 160 143
-4.118418e-01 2.122458e-01 -2.797978e+00 34 28 33
-1.225933e-01 1.877864e-01 -2.568579e+00 157 150 155
-6.140301e-01 1.990044e-01 -2.786856e+00 27 30 37
-1.131919e+00 2.349487e-01 -2.906720e+00 43 37 44
-8.687627e-01 1.860273e-01 -2.831101e+00 26 27 32
-1.078676e+00 1.944788e-01 -2.896692e+00 85 81 75
-1.078676e+00 1.944788e-01 -2.896692e+00 85 81 75
-4.574941e-01 1.443560e-01 -2.716664e+00 157 155 156
3.005236e-02 1.308133e-01 -2.562004e+00 135 137 136
-3.688884e-01 1.321480e-01 -2.665329e+00 182 178 175
