ply
format ascii 1.0
element face 0
property list uchar int vertex_indices
element vertex 922
property float x
property float y
property float z
property uchar diffuse_red
property uchar diffuse_green
property uchar diffuse_blue
end_header
2.786460e-01 6.727533e-01 -2.867438e+00 65 68 75
3.108244e-01 6.619948e-01 -2.865957e+00 47 42 37
2.567322e-01 6.396632e-01 -2.865086e+00 184 175 168
6.021170e-01 6.356692e-01 -2.737858e+00 194 197 202
2.652794e-01 6.145566e-01 -2.844435e+00 56 37 48
2.603558e-01 6.055137e-01 -2.846978e+00 188 170 171
-5.019349e-01 5.507395e-01 -2.705852e+00 39 28 33
-5.227220e-01 5.520323e-01 -2.705507e+00 49 38 48
-4.246252e-01 5.140034e-01 -2.703555e+00 87 78 76
-5.580627e-01 5.304844e-01 -2.700623e+00 43 38 44
-4.292198e-01 5.192683e-01 -2.834858e+00 13 16 21
-4.204759e-01 5.176016e-01 -2.829396e+00 36 35 43
-4.205121e-01 5.175980e-01 -2.829789e+00 36 35 43
6.332961e-01 5.115211e-01 -2.711208e+00 115 120 122
-5.081440e-01 5.060911e-01 -2.698221e+00 99 88 93
-4.137366e-01 4.891122e-01 -2.696075e+00 137 118 112
-5.257875e-01 5.032239e-01 -2.696245e+00 96 86 87
-3.851843e-01 4.901343e-01 -2.829972e+00 17 19 30
-3.946952e-01 4.906955e-01 -2.832305e+00 12 15 22
-5.215888e-01 4.803148e-01 -2.667231e+00 93 81 76
-5.617089e-01 4.860676e-01 -2.692070e+00 35 29 33
-5.456807e-01 4.814863e-01 -2.690362e+00 99 93 76
-2.083089e-01 4.345339e-01 -2.804249e+00 167 172 178
-1.881016e-01 4.312037e-01 -2.801138e+00 154 134 127
5.158342e-02 4.169877e-01 -2.762108e+00 180 176 175
-5.303795e-01 4.364797e-01 -2.719514e+00 175 164 167
9.489718e-02 4.003144e-01 -2.762122e+00 175 171 168
4.498556e-02 3.970552e-01 -2.759752e+00 188 184 181
-7.772129e-01 4.365844e-01 -2.820503e+00 172 171 176
-5.343450e-01 3.991547e-01 -2.711322e+00 185 182 166
-8.399983e-01 4.284223e-01 -2.825435e+00 53 49 70
-7.673448e-01 4.179041e-01 -2.831832e+00 24 28 41
-4.742305e-01 3.645072e-01 -2.805721e+00 34 38 41
-4.813039e-01 3.643508e-01 -2.806741e+00 109 115 104
-9.149294e-01 4.074068e-01 -2.829608e+00 41 46 66
-8.962804e-01 4.028764e-01 -2.827989e+00 19 32 49
-2.201601e-01 3.260210e-01 -2.824544e+00 161 147 134
-8.251121e-01 3.629460e-01 -2.821734e+00 25 25 27
-8.731870e-01 3.488836e-01 -2.817654e+00 57 56 87
-8.397442e-01 3.406803e-01 -2.816623e+00 165 168 161
-7.986329e-01 3.136084e-01 -2.836850e+00 142 134 130
-4.857866e-01 2.891137e-01 -2.822755e+00 42 33 40
-2.920706e-01 2.753766e-01 -2.815190e+00 119 115 110
-4.871169e-01 2.720031e-01 -2.820164e+00 61 59 63
-3.433972e-01 2.384817e-01 -2.808404e+00 33 29 31
4.832126e-01 2.566138e-01 -2.668390e+00 148 147 150
4.806182e-01 2.516854e-01 -2.666661e+00 180 182 183
2.696120e-01 2.208044e-01 -2.778178e+00 41 41 31
-5.343850e-01 2.161418e-01 -2.809136e+00 35 37 36
5.368621e-01 2.346389e-01 -2.677957e+00 154 154 155
-6.008022e-01 2.048149e-01 -2.809074e+00 55 53 54
5.014144e-01 1.989388e-01 -2.673401e+00 138 139 143
6.161618e-01 1.582901e-01 -2.696359e+00 203 211 222
6.025813e-01 1.453080e-01 -2.743704e+00 197 201 197
-4.347015e-01 1.111850e-01 -2.707123e+00 154 150 151
-3.713725e-01 1.113953e-01 -2.663143e+00 151 144 151
4.747375e-01 1.027670e-01 -2.777039e+00 123 123 125
7.360206e-01 3.179607e-02 -2.707403e+00 224 230 236
5.470238e-02 5.354583e-02 -2.595168e+00 44 65 94
5.193515e-01 4.044285e-03 -2.727393e+00 172 156 119
5.784203e-01 -4.263221e-02 -2.765183e+00 198 192 180
6.684560e-01 -3.941027e-02 -2.701455e+00 137 114 123
4.358671e-01 -5.632034e-02 -2.758620e+00 178 174 171
4.551692e-01 -6.426613e-02 -2.759115e+00 199 183 176
5.597945e-01 -8.918551e-02 -2.729234e+00 160 131 126
7.356888e-01 -7.136718e-02 -2.651273e+00 247 245 251
3.848703e-01 -9.924363e-02 -2.755704e+00 72 88 88
7.180176e-01 -8.606367e-02 -2.667313e+00 204 175 161
6.662913e-01 -9.583899e-02 -2.675807e+00 186 156 153
6.958927e-01 -1.059487e-01 -2.625454e+00 121 91 97
4.973358e-01 -1.507718e-01 -2.749457e+00 198 191 181
6.857779e-01 -1.262113e-01 -2.643309e+00 59 72 103
3.892405e-01 -1.524139e-01 -2.743956e+00 155 156 158
-7.338721e-02 -1.488749e-01 -2.700887e+00 133 114 118
7.022367e-01 -1.242771e-01 -2.599346e+00 232 242 244
1.803670e-01 -1.075492e-01 -2.616605e+00 154 168 184
4.551897e-01 -2.033539e-01 -2.740166e+00 151 152 155
5.106466e-01 -2.306464e-01 -2.747861e+00 91 88 104
2.426434e-01 -1.861962e-01 -2.644567e+00 102 100 92
2.395183e-01 -1.910847e-01 -2.641148e+00 89 86 64
-1.825660e-01 -2.696152e-01 -2.631681e+00 143 148 124
8.287401e-02 -2.652937e-01 -2.653921e+00 160 158 154
4.106774e-01 -2.644225e-01 -2.634281e+00 103 107 116
-2.571015e-01 -2.968215e-01 -2.640654e+00 53 46 53
-2.361411e-01 -2.982477e-01 -2.625077e+00 113 117 121
3.699980e-01 -2.840821e-01 -2.633690e+00 60 56 78
4.956157e-02 -2.941660e-01 -2.648744e+00 172 168 173
3.624444e-01 -2.849827e-01 -2.596037e+00 98 101 120
-9.094309e-02 -3.763700e-01 -2.706506e+00 68 73 67
2.634356e-01 -3.177590e-01 -2.634201e+00 100 102 110
-4.158183e-01 -3.779112e-01 -2.603386e+00 179 179 178
-2.863927e-02 -3.944054e-01 -2.712367e+00 24 28 35
2.702693e-01 -3.373281e-01 -2.643440e+00 168 168 158
8.226164e-02 -3.373485e-01 -2.630957e+00 156 130 131
3.340673e-01 -3.134288e-01 -2.594720e+00 126 142 156
-2.620445e-01 -3.998045e-01 -2.608658e+00 39 33 58
-1.979382e-01 -4.323544e-01 -2.626258e+00 233 228 220
-3.289577e-01 7.108578e-01 -2.703337e+00 216 216 197
4.480569e-01 7.350858e-01 -2.788278e+00 244 244 234
4.470102e-01 7.334445e-01 -2.796881e+00 248 244 235
4.018310e-01 7.474959e-01 -2.857876e+00 178 159 109
-4.781406e-01 7.143390e-01 -2.672637e+00 46 53 70
3.938420e-01 7.369481e-01 -2.863731e+00 66 48 39
1.718125e-01 6.782977e-01 -2.775268e+00 210 138 166
3.647754e-01 7.260288e-01 -2.868901e+00 238 238 226
-1.378964e-01 6.852322e-01 -2.809490e+00 26 30 29
4.442272e-01 7.072650e-01 -2.841544e+00 234 220 183
-1.270122e-01 6.626550e-01 -2.805134e+00 29 32 39
2.808168e-01 6.790763e-01 -2.869043e+00 32 33 38
1.334159e-01 6.645576e-01 -2.861418e+00 64 63 66
-8.637359e-02 5.178862e-01 -2.829110e+00 45 54 69
-4.004174e-01 5.412789e-01 -2.825600e+00 28 39 44
4.251049e-02 4.913399e-01 -2.774791e+00 160 156 153
6.266625e-01 5.255621e-01 -2.711169e+00 250 244 235
6.347799e-01 5.164335e-01 -2.710093e+00 250 246 238
-7.904264e-02 4.895229e-01 -2.825825e+00 146 143 151
-3.932602e-01 4.989615e-01 -2.825723e+00 30 39 48
5.414110e-01 4.671418e-01 -2.795973e+00 165 146 146
2.579118e-01 4.102615e-01 -2.816331e+00 123 113 111
-5.062523e-01 4.166229e-01 -2.720652e+00 182 180 173
1.438697e-01 3.884448e-01 -2.763496e+00 176 175 171
-5.989775e-01 4.240203e-01 -2.719314e+00 49 43 59
-5.989775e-01 4.240203e-01 -2.719314e+00 49 43 59
-5.089747e-01 4.111801e-01 -2.715687e+00 167 167 161
-1.660810e-01 3.850810e-01 -2.798379e+00 160 131 129
-8.908845e-01 4.321936e-01 -2.836890e+00 59 58 88
-8.908845e-01 4.321936e-01 -2.836890e+00 59 58 88
-4.335676e-01 3.691176e-01 -2.833899e+00 41 34 36
-4.381765e-01 3.635107e-01 -2.834975e+00 146 135 131
-5.227789e-01 3.353373e-01 -2.824205e+00 29 22 25
5.362906e-01 3.327261e-01 -2.693935e+00 146 144 148
5.226603e-01 2.653029e-01 -2.674248e+00 155 157 159
4.934703e-01 2.606563e-01 -2.670795e+00 145 144 148
4.882097e-01 2.562696e-01 -2.667156e+00 192 192 194
4.885179e-01 2.468709e-01 -2.664821e+00 150 148 153
-6.201568e-01 2.058808e-01 -2.794029e+00 76 78 69
-6.201568e-01 2.058808e-01 -2.794029e+00 76 78 69
-5.366762e-01 1.964445e-01 -2.807158e+00 53 55 52
-5.413229e-01 1.849168e-01 -2.801683e+00 23 18 22
-6.285246e-01 1.846445e-01 -2.766400e+00 86 86 88
4.015492e-01 1.589702e-01 -2.777340e+00 150 144 127
4.327663e-01 1.401769e-01 -2.777879e+00 197 196 192
3.811662e-01 1.369744e-01 -2.768615e+00 128 122 118
4.738049e-01 1.213744e-01 -2.778304e+00 142 137 130
5.367104e-01 1.222719e-01 -2.744412e+00 159 135 131
5.304126e-01 1.202485e-01 -2.743516e+00 57 57 54
-3.764102e-01 1.038355e-01 -2.660112e+00 150 145 152
-3.262835e-01 9.699231e-02 -2.672700e+00 112 114 121
-3.210279e-01 9.272521e-02 -2.672068e+00 114 113 118
9.975972e-01 8.755956e-02 -2.781940e+00 212 202 195
1.013879e+00 6.443809e-02 -2.787370e+00 185 173 151
-4.046204e-01 7.062251e-02 -2.652240e+00 186 181 180
9.297328e-01 4.637933e-02 -2.782996e+00 59 55 73
4.962049e-01 6.310338e-02 -2.718550e+00 160 141 117
3.370645e-01 3.501711e-02 -2.757235e+00 47 52 28
1.477753e-01 3.716652e-02 -2.636772e+00 184 141 135
4.630125e-01 -7.017753e-03 -2.758594e+00 163 159 160
4.696335e-01 -1.455303e-02 -2.761074e+00 167 159 154
7.043179e-01 -5.644500e-03 -2.705327e+00 104 108 119
4.892968e-01 -2.134889e-02 -2.762544e+00 147 152 112
4.380279e-01 -2.228618e-02 -2.763372e+00 172 170 171
6.953944e-01 -1.523204e-02 -2.702316e+00 127 124 140
4.598412e-01 -3.072867e-02 -2.757950e+00 163 162 160
-3.737062e-01 -6.841087e-02 -2.721058e+00 109 93 106
8.101015e-01 -5.849948e-02 -2.639942e+00 243 247 247
8.101015e-01 -5.849948e-02 -2.639942e+00 243 247 247
7.307595e-01 -7.723526e-02 -2.649618e+00 238 237 245
7.307595e-01 -7.723526e-02 -2.649618e+00 238 237 245
7.340076e-01 -8.075408e-02 -2.627575e+00 176 145 142
7.432578e-01 -7.820242e-02 -2.611521e+00 230 239 249
7.130903e-01 -1.006886e-01 -2.643872e+00 205 179 156
7.027137e-01 -1.071865e-01 -2.648525e+00 93 97 128
3.901345e-01 -1.429117e-01 -2.753362e+00 152 152 153
7.143364e-01 -1.109400e-01 -2.602517e+00 230 239 250
6.625785e-01 -1.526927e-01 -2.636969e+00 52 59 83
-5.898288e-02 -1.720022e-01 -2.702927e+00 75 89 100
4.146444e-01 -1.884264e-01 -2.738612e+00 154 157 166
-4.934971e-02 -1.753177e-01 -2.702007e+00 65 77 100
4.524515e-01 -1.995707e-01 -2.746461e+00 152 156 159
-8.301868e-02 -1.807861e-01 -2.691713e+00 45 53 63
-4.252099e-02 -1.845758e-01 -2.698102e+00 58 66 81
-3.442110e-01 -2.236370e-01 -2.713404e+00 143 142 141
2.433110e-01 -1.895443e-01 -2.639951e+00 237 230 208
3.102529e-01 -2.460935e-01 -2.727265e+00 70 68 67
-2.357071e-01 -2.626923e-01 -2.691860e+00 59 72 96
-2.869441e-01 -2.981189e-01 -2.669756e+00 95 85 85
-2.596145e-01 -2.981673e-01 -2.668168e+00 84 79 78
3.740426e-01 -2.613537e-01 -2.647763e+00 219 201 222
-1.602284e-01 -2.845363e-01 -2.630529e+00 39 45 72
-1.623946e-01 -2.928434e-01 -2.627144e+00 29 32 51
3.334783e-01 -2.919138e-01 -2.643866e+00 36 35 53
-1.731919e-01 -3.001377e-01 -2.608508e+00 210 206 207
3.478041e-01 -2.994201e-01 -2.635953e+00 111 106 103
-1.736253e-01 -3.052701e-01 -2.605884e+00 94 66 110
-1.736253e-01 -3.052701e-01 -2.605884e+00 94 66 110
3.220851e-01 -3.158277e-01 -2.599590e+00 193 190 200
-2.337166e-01 -3.691177e-01 -2.615202e+00 167 167 169
2.904832e-01 -3.519173e-01 -2.619099e+00 72 72 106
2.904832e-01 -3.519173e-01 -2.619099e+00 72 72 106
2.928827e-01 -3.516264e-01 -2.606658e+00 78 69 86
-1.547975e-01 -3.915887e-01 -2.600195e+00 187 167 161
3.360110e-01 7.670680e-01 -2.855418e+00 32 40 42
-4.505442e-01 7.355887e-01 -2.672533e+00 36 36 42
-4.505442e-01 7.355887e-01 -2.672533e+00 36 36 42
4.463621e-01 7.329900e-01 -2.797481e+00 249 244 237
5.671526e-03 6.704617e-01 -2.796753e+00 137 108 114
2.772476e-01 6.449652e-01 -2.852048e+00 76 46 54
2.929557e-01 5.970773e-01 -2.857112e+00 161 155 157
8.763070e-02 5.250275e-01 -2.788363e+00 165 161 160
-4.734235e-01 5.414032e-01 -2.703783e+00 97 86 87
1.049743e-01 4.747850e-01 -2.776378e+00 162 161 158
-3.964213e-01 4.923025e-01 -2.830910e+00 17 20 25
5.585516e-01 4.808144e-01 -2.795622e+00 44 52 59
5.450832e-01 4.650685e-01 -2.789605e+00 82 79 85
-5.528572e-01 4.369701e-01 -2.718204e+00 180 175 168
1.280943e-01 3.926577e-01 -2.762323e+00 156 155 151
-1.851733e-01 3.882550e-01 -2.798914e+00 176 171 170
9.504753e-02 3.542824e-01 -2.753959e+00 185 182 177
-1.017056e+00 4.214721e-01 -2.856645e+00 39 38 44
-8.696015e-01 3.541618e-01 -2.817240e+00 39 39 66
-8.172712e-01 3.478720e-01 -2.826174e+00 68 68 69
5.174108e-01 3.074171e-01 -2.725093e+00 198 194 181
-8.383555e-01 3.177620e-01 -2.825244e+00 41 43 54
-8.383555e-01 3.177620e-01 -2.825244e+00 41 43 54
-4.483115e-01 2.796624e-01 -2.821661e+00 183 169 158
4.955970e-01 2.620910e-01 -2.673604e+00 148 151 150
4.938055e-01 2.533099e-01 -2.667496e+00 137 138 140
5.491943e-01 2.433102e-01 -2.679360e+00 154 153 152
-5.575135e-01 2.201614e-01 -2.811907e+00 29 32 35
-4.211052e-01 2.027257e-01 -2.797907e+00 37 35 24
3.990409e-01 1.955642e-01 -2.782696e+00 77 92 108
-4.768400e-01 1.344199e-01 -2.708283e+00 55 59 91
9.169494e-01 4.855032e-02 -2.780100e+00 162 157 152
9.344585e-01 2.727226e-02 -2.771798e+00 50 55 61
7.397613e-01 2.526898e-02 -2.643410e+00 168 130 137
7.269791e-01 -4.569911e-03 -2.683190e+00 192 181 176
-3.855239e-01 -5.884066e-02 -2.721273e+00 172 168 180
-3.855239e-01 -5.884066e-02 -2.721273e+00 172 168 180
-3.855239e-01 -5.884066e-02 -2.721273e+00 172 168 180
4.068613e-01 -5.250463e-02 -2.756409e+00 57 63 66
1.791903e-01 -1.409371e-02 -2.629997e+00 136 146 155
4.085699e-01 -6.255763e-02 -2.758732e+00 67 70 72
4.091575e-01 -6.287212e-02 -2.761064e+00 67 70 72
4.560269e-01 -8.374529e-02 -2.747051e+00 103 108 72
7.554572e-01 -6.281904e-02 -2.613356e+00 53 58 76
7.081082e-01 -9.902585e-02 -2.648001e+00 120 90 91
4.605864e-01 -1.206733e-01 -2.727022e+00 173 134 118
6.771197e-01 -1.325305e-01 -2.647733e+00 197 211 217
1.732468e-01 -1.083490e-01 -2.614533e+00 159 170 180
-1.064498e-01 -1.754709e-01 -2.692170e+00 26 26 34
-3.435970e-01 -2.199233e-01 -2.709331e+00 139 135 136
-8.748791e-02 -1.858828e-01 -2.690300e+00 43 52 62
3.789778e-01 -2.091825e-01 -2.739589e+00 175 175 167
-8.623493e-02 -1.926864e-01 -2.691308e+00 28 29 36
-8.571646e-02 -1.915543e-01 -2.689919e+00 28 29 36
-7.246648e-02 -1.998496e-01 -2.692096e+00 43 50 64
-6.642951e-02 -2.014463e-01 -2.693198e+00 29 32 44
-6.232118e-02 -2.063626e-01 -2.693791e+00 45 49 58
-1.292888e-01 -2.240433e-01 -2.645241e+00 176 180 183
3.587065e-01 -2.172050e-01 -2.647280e+00 152 176 189
-2.715291e-01 -2.885153e-01 -2.666470e+00 33 31 37
-3.966856e-02 -2.973468e-01 -2.714202e+00 53 54 58
1.216602e-01 -2.618083e-01 -2.657582e+00 160 154 154
3.519438e-01 -2.688078e-01 -2.647793e+00 179 166 158
4.767840e-02 -2.923669e-01 -2.650030e+00 165 161 165
-1.855001e-01 -2.963888e-01 -2.608016e+00 132 51 98
3.706711e-01 -2.841704e-01 -2.615162e+00 191 198 207
3.706711e-01 -2.841704e-01 -2.615162e+00 191 198 207
3.788047e-01 -2.955268e-01 -2.589007e+00 93 96 103
4.017560e-01 -3.215245e-01 -2.608766e+00 31 37 53
4.018550e-01 -3.216435e-01 -2.608180e+00 31 37 53
-2.365335e-01 -3.965438e-01 -2.599387e+00 232 223 216
3.433802e-01 7.665240e-01 -2.860542e+00 100 107 118
1.651592e-02 7.242531e-01 -2.810830e+00 170 166 157
3.393526e-02 7.193105e-01 -2.806951e+00 56 48 52
-3.700012e-01 7.165145e-01 -2.702082e+00 49 63 74
3.592888e-01 7.408497e-01 -2.850544e+00 251 245 247
4.064407e-01 7.464682e-01 -2.847466e+00 251 242 209
9.508996e-02 7.083857e-01 -2.851705e+00 125 120 123
1.028137e-01 7.044281e-01 -2.841143e+00 53 49 46
4.631176e-01 7.148734e-01 -2.793346e+00 232 231 216
-7.916317e-02 6.924743e-01 -2.842460e+00 183 135 138
8.517932e-02 6.886658e-01 -2.852660e+00 136 133 141
8.517932e-02 6.886658e-01 -2.852660e+00 136 133 141
4.514560e-01 7.108282e-01 -2.828660e+00 165 142 134
1.508237e-01 6.763876e-01 -2.863767e+00 221 179 155
5.863541e-01 6.585891e-01 -2.738682e+00 237 234 231
2.276956e-01 6.234552e-01 -2.859231e+00 171 164 160
6.509557e-01 5.981461e-01 -2.745577e+00 58 59 62
6.212271e-02 4.875598e-01 -2.777375e+00 161 157 158
1.158402e-01 3.810755e-01 -2.760033e+00 150 146 147
-3.091803e-01 3.738637e-01 -2.830797e+00 109 104 100
-3.091803e-01 3.738637e-01 -2.830797e+00 109 104 100
-3.120209e-01 3.606944e-01 -2.831638e+00 45 49 52
5.354306e-01 3.555786e-01 -2.700270e+00 135 136 140
8.445578e-02 2.709233e-01 -2.790801e+00 162 152 142
5.477569e-01 2.626111e-01 -2.679897e+00 170 166 167
-4.347721e-01 2.238142e-01 -2.809289e+00 147 141 131
-4.156865e-01 1.998232e-01 -2.709487e+00 46 44 58
-4.156865e-01 1.998232e-01 -2.709487e+00 46 44 58
-5.851341e-01 1.780290e-01 -2.770473e+00 86 98 112
3.739953e-01 1.105079e-01 -2.769370e+00 146 150 110
7.417822e-01 3.112815e-02 -2.668820e+00 36 37 43
4.811738e-01 9.816687e-03 -2.753335e+00 226 219 172
4.564038e-01 -3.251836e-03 -2.761525e+00 193 190 185
4.246425e-01 -6.871291e-02 -2.759361e+00 47 54 64
4.636254e-01 -6.867917e-02 -2.746619e+00 103 110 69
5.663634e-01 -8.274575e-02 -2.741472e+00 101 70 68
2.523652e-01 -9.778595e-02 -2.658267e+00 93 101 103
-2.566880e-02 -1.288385e-01 -2.711399e+00 176 178 172
6.997742e-01 -1.213498e-01 -2.609266e+00 235 238 244
-3.622399e-01 -2.291434e-01 -2.706046e+00 151 149 150
-5.427567e-02 -2.154328e-01 -2.692484e+00 48 56 70
-1.394376e-01 -2.128287e-01 -2.644168e+00 172 173 175
3.145433e-01 -2.478338e-01 -2.712320e+00 180 187 193
-8.475962e-02 -2.341552e-01 -2.645886e+00 159 173 184
-1.815919e-01 -2.733402e-01 -2.632545e+00 140 148 126
-1.409940e-01 -2.778305e-01 -2.635672e+00 137 140 147
4.099171e-01 -2.657833e-01 -2.627236e+00 108 111 120
3.831657e-01 -2.740873e-01 -2.634294e+00 106 116 122
-1.747917e-01 -2.906954e-01 -2.618665e+00 191 193 193
-1.688850e-01 -2.961677e-01 -2.620196e+00 189 189 187
-1.681145e-02 -3.931314e-01 -2.710551e+00 40 43 52
4.482203e-01 7.431297e-01 -2.763780e+00 250 249 240
3.502675e-01 7.569839e-01 -2.841404e+00 39 37 45
4.556681e-01 7.378944e-01 -2.762166e+00 119 103 113
4.413602e-01 7.409547e-01 -2.780473e+00 109 105 104
4.418600e-01 7.323776e-01 -2.801933e+00 246 244 232
3.685259e-01 7.378164e-01 -2.845922e+00 63 52 64
4.737899e-01 7.186083e-01 -2.758824e+00 67 67 70
4.343988e-01 7.306842e-01 -2.816692e+00 87 78 78
6.328212e-01 6.315798e-01 -2.731495e+00 252 251 246
-4.112594e-01 4.691172e-01 -2.692860e+00 25 25 30
5.631277e-01 4.471603e-01 -2.801742e+00 101 97 98
5.540857e-01 4.341921e-01 -2.791570e+00 201 179 169
5.659684e-01 4.352680e-01 -2.790471e+00 122 114 110
8.749104e-02 3.842503e-01 -2.757472e+00 171 167 164
5.472061e-01 3.348615e-01 -2.697122e+00 147 147 149
-2.909539e-01 3.104162e-01 -2.824958e+00 40 42 48
4.900162e-01 3.014555e-01 -2.718958e+00 223 209 171
-5.342826e-01 1.881840e-01 -2.801056e+00 19 19 22
-5.353588e-01 1.880697e-01 -2.802169e+00 19 19 22
4.100897e-01 1.198985e-01 -2.769467e+00 180 177 172
-5.229043e-01 1.009644e-01 -2.704075e+00 25 27 40
3.269887e-01 2.191934e-02 -2.752584e+00 126 124 84
5.164697e-01 -2.764663e-02 -2.739733e+00 199 157 149
7.496984e-01 -7.891926e-02 -2.602862e+00 184 145 147
4.519065e-01 -1.211323e-01 -2.723077e+00 36 34 35
-3.440356e-01 -1.570005e-01 -2.736254e+00 189 188 194
-3.701600e-02 -1.303452e-01 -2.708848e+00 128 108 97
6.724884e-01 -1.404426e-01 -2.641129e+00 60 45 51
6.724884e-01 -1.404426e-01 -2.641129e+00 60 45 51
-3.803439e-01 -2.198176e-01 -2.713195e+00 170 164 166
4.030130e-01 -2.014180e-01 -2.742119e+00 158 159 163
9.926170e-02 -1.609621e-01 -2.606504e+00 29 32 45
-1.970290e-01 -2.720729e-01 -2.627323e+00 161 156 162
3.724435e-02 -2.787906e-01 -2.650218e+00 189 185 183
3.705324e-01 -2.784452e-01 -2.640192e+00 196 196 193
3.705324e-01 -2.784452e-01 -2.640192e+00 196 196 193
3.028679e-01 -2.754668e-01 -2.640063e+00 97 86 85
3.028679e-01 -2.754668e-01 -2.640063e+00 97 86 85
4.543708e-01 7.260054e-01 -2.799936e+00 170 139 139
4.543708e-01 7.260054e-01 -2.799936e+00 170 139 139
4.478323e-01 7.269107e-01 -2.823130e+00 242 238 220
4.478323e-01 7.269107e-01 -2.823130e+00 242 238 220
4.352256e-01 7.212213e-01 -2.837838e+00 245 238 216
-6.043956e-01 4.409460e-01 -2.724084e+00 181 181 183
-4.737585e-01 2.339242e-01 -2.809326e+00 79 78 72
2.003289e-01 1.498451e-01 -2.711708e+00 35 41 39
4.452742e-02 1.426289e-01 -2.575709e+00 173 171 172
9.330193e-01 4.092367e-02 -2.783601e+00 51 54 61
5.195266e-01 1.203647e-02 -2.746301e+00 157 158 120
4.444833e-01 -1.193872e-02 -2.756124e+00 163 159 160
3.699814e-01 -2.741995e-01 -2.654065e+00 73 48 54
3.695433e-01 -2.736539e-01 -2.653616e+00 73 48 54
3.280265e-01 -2.833080e-01 -2.646793e+00 174 165 156
3.620417e-01 -2.877671e-01 -2.633307e+00 187 191 193
3.881325e-01 -2.735492e-01 -2.609949e+00 151 157 160
7.930423e-02 -3.270192e-01 -2.641182e+00 53 47 62
2.882919e-01 -3.324783e-01 -2.636845e+00 183 179 170
3.235095e-01 -3.189580e-01 -2.609239e+00 151 158 167
-2.661389e-01 -3.900671e-01 -2.605185e+00 145 151 162
-3.472098e-01 7.180820e-01 -2.710324e+00 28 28 36
4.039611e-01 7.477858e-01 -2.827448e+00 214 210 200
4.628871e-01 7.227287e-01 -2.774825e+00 250 248 236
4.265897e-01 7.303303e-01 -2.842338e+00 245 238 208
3.689262e-01 7.142697e-01 -2.844942e+00 243 240 234
8.726824e-02 6.590224e-01 -2.837661e+00 49 48 56
1.344982e-01 4.013522e-01 -2.765275e+00 175 172 165
5.215169e-01 -1.145745e-01 -2.709194e+00 54 51 57
3.851970e-01 -1.325171e-01 -2.746492e+00 149 149 149
-2.187589e-01 -2.329890e-01 -2.702502e+00 141 146 152
-1.504097e-01 -2.396097e-01 -2.643496e+00 22 25 40
-2.404460e-01 -3.793076e-01 -2.611035e+00 168 167 168
-4.526250e-01 3.663506e-01 -2.833359e+00 14 17 21
9.455572e-01 1.985041e-01 -2.784621e+00 192 189 184
-5.010408e-01 1.018657e-01 -2.710839e+00 181 179 182
-3.619472e-01 -8.739128e-02 -2.740855e+00 47 51 62
5.517925e-01 4.385285e-01 -2.818261e+00 147 133 120
-6.064795e-01 1.471109e-01 -2.762177e+00 170 173 182
-3.294871e-01 -5.723951e-02 -2.738391e+00 72 78 90
-3.432262e-01 -2.521621e-01 -2.698139e+00 136 130 132
-2.767414e-01 3.822750e-01 -2.832739e+00 45 50 56
4.309792e-01 -9.407112e-02 -2.758564e+00 29 32 39
4.301050e-01 -9.284155e-02 -2.753963e+00 29 32 39
-1.675586e-01 -3.301246e-01 -2.626638e+00 204 199 203
-5.116793e-01 2.937228e-01 -2.813445e+00 23 25 30
3.697748e-01 -1.774355e-01 -2.739262e+00 161 161 161
-9.088305e-02 6.648900e-01 -2.851583e+00 21 22 27
5.756148e-01 4.594745e-01 -2.766167e+00 245 240 234
6.728087e-01 3.141528e-01 -2.702105e+00 254 254 254
-7.401384e-01 1.233205e-01 -2.731472e+00 165 163 161
4.022277e-01 -2.086899e-01 -2.677599e+00 29 37 47
1.834787e-01 3.048823e-01 -2.785106e+00 33 22 28
4.154448e-01 2.009686e-01 -2.787039e+00 181 162 181
3.565565e-02 1.179861e-01 -2.573042e+00 180 179 175
3.564492e-01 1.463314e-01 -2.774830e+00 118 120 110
3.566840e-01 1.469046e-01 -2.776980e+00 118 120 110
3.002949e-01 1.242898e-01 -2.766771e+00 103 114 74
3.090773e-01 9.761471e-02 -2.765938e+00 77 87 55
6.703035e-02 5.373823e-02 -2.596146e+00 26 30 45
6.097704e-02 -4.284628e-03 -2.624703e+00 188 187 185
4.671918e-01 -2.109692e-02 -2.765351e+00 181 176 175
3.808308e-01 -7.425458e-02 -2.757809e+00 139 133 119
3.871843e-01 -9.656203e-02 -2.757939e+00 194 192 179
-5.991087e-02 -9.564684e-02 -2.715965e+00 164 161 156
2.506140e-01 -1.073386e-01 -2.656491e+00 105 113 114
2.501795e-01 -1.474322e-01 -2.650935e+00 158 155 150
3.689440e-01 -2.091941e-01 -2.740054e+00 209 209 197
3.691040e-01 -2.092988e-01 -2.740505e+00 209 209 197
2.792720e-01 -2.114452e-01 -2.740180e+00 202 195 188
3.191530e-02 -2.793491e-01 -2.649022e+00 44 46 52
3.203435e-02 -2.794880e-01 -2.649256e+00 44 46 52
5.476660e-01 -3.364981e-01 -2.732598e+00 113 117 121
2.093305e-01 -3.394900e-01 -2.626481e+00 147 120 126
4.367895e-01 -4.457183e-01 -2.699187e+00 180 177 188
1.027229e-01 3.209086e-01 -2.749938e+00 181 182 186
4.060751e-01 1.491494e-01 -2.778179e+00 145 136 128
3.504512e-01 1.404456e-01 -2.773840e+00 126 125 96
3.634425e-01 1.386762e-01 -2.774329e+00 120 121 90
3.318406e-01 1.361833e-01 -2.772391e+00 125 126 86
1.139093e-01 1.917151e-03 -2.616629e+00 116 106 104
4.283281e-01 -1.779324e-02 -2.762772e+00 201 200 200
8.935626e-02 -2.996167e-02 -2.609984e+00 23 26 33
2.636396e-02 -3.546896e-02 -2.581717e+00 185 180 172
2.045621e-01 -9.069225e-02 -2.653277e+00 37 45 58
2.401990e-01 -1.530441e-01 -2.648502e+00 167 164 159
-3.284798e-02 -1.777657e-01 -2.703557e+00 195 200 204
6.180351e-02 -2.444842e-01 -2.655354e+00 63 66 71
6.029086e-02 -2.463475e-01 -2.654406e+00 58 66 74
5.194399e-01 -3.261541e-01 -2.734906e+00 155 163 163
7.234548e-02 2.663977e-01 -2.793177e+00 49 56 64
1.117856e-02 1.056542e-01 -2.568170e+00 175 171 170
1.406686e-03 9.046555e-02 -2.566797e+00 75 82 93
3.007286e-01 6.777591e-02 -2.756702e+00 104 116 79
6.523181e-02 1.395807e-02 -2.592062e+00 165 176 182
-7.729282e-02 -1.159076e-01 -2.710463e+00 181 173 162
2.582909e-01 -1.229970e-01 -2.655893e+00 196 195 193
1.208389e-01 -1.268065e-01 -2.617108e+00 157 156 152
-7.530843e-02 -1.279072e-01 -2.707980e+00 170 161 157
-5.555766e-02 -1.350887e-01 -2.707464e+00 168 174 178
2.891099e-01 -2.018081e-01 -2.743574e+00 128 127 126
5.017101e-02 -2.259210e-01 -2.656703e+00 57 61 64
-5.556403e-02 -2.889317e-01 -2.719925e+00 45 46 51
4.154000e-01 -4.544492e-01 -2.697619e+00 158 148 137
4.191380e-01 -4.560445e-01 -2.698495e+00 193 190 180
4.139442e-01 -4.574550e-01 -2.694964e+00 193 189 181
1.206130e-01 2.905423e-01 -2.745103e+00 158 162 167
3.959901e-02 1.226413e-01 -2.573617e+00 147 146 143
4.226705e-01 1.687258e-01 -2.780256e+00 214 208 208
6.331748e-02 9.464777e-02 -2.600452e+00 81 92 110
2.889379e-01 1.063209e-01 -2.764205e+00 106 120 87
1.802180e-01 -1.431498e-01 -2.611181e+00 180 189 195
-8.475452e-02 -1.680311e-01 -2.701158e+00 53 59 71
8.303264e-02 -2.676046e-01 -2.654078e+00 164 160 157
2.113362e-01 3.158676e-01 -2.789720e+00 38 34 33
1.673199e-01 2.953537e-01 -2.783109e+00 38 35 40
2.621166e-02 8.692403e-02 -2.566133e+00 156 162 158
2.875603e-01 1.114319e-01 -2.764447e+00 34 47 24
3.303196e-01 1.104845e-01 -2.768649e+00 120 120 84
3.936491e-02 3.044110e-02 -2.593240e+00 48 74 101
2.057248e-02 8.599721e-03 -2.592853e+00 52 75 96
2.470508e-01 -1.310530e-01 -2.651757e+00 155 153 152
4.094127e-01 -1.782670e-01 -2.749290e+00 163 162 168
-7.933353e-02 -1.598953e-01 -2.700930e+00 171 168 165
-6.938197e-02 -1.818854e-01 -2.696901e+00 50 59 68
-7.487115e-02 -1.868860e-01 -2.697514e+00 50 52 64
-5.796029e-02 -1.974687e-01 -2.696998e+00 54 58 67
4.506012e-01 -4.170972e-01 -2.709406e+00 157 160 169
4.572421e-01 -4.237396e-01 -2.706605e+00 161 164 172
1.304372e-01 6.672006e-02 -2.647836e+00 55 49 61
1.750968e-01 -2.734125e-02 -2.621300e+00 165 175 183
2.199021e-01 -8.762694e-02 -2.654623e+00 154 156 151
-1.006869e-01 -1.502790e-01 -2.702087e+00 144 139 135
1.080048e-01 -2.381753e-01 -2.658547e+00 63 65 76
-3.022610e-02 -3.331263e-01 -2.718876e+00 123 107 92
2.766829e-01 -3.551960e-01 -2.636564e+00 175 171 168
1.266892e-01 -3.880291e-01 -2.720115e+00 60 66 70
4.489279e-01 1.509156e-01 -2.777329e+00 203 202 200
2.429834e-01 -1.422564e-01 -2.651437e+00 172 171 166
2.290535e-01 -1.537611e-01 -2.646777e+00 59 70 76
-2.659089e-02 -1.658632e-01 -2.705154e+00 173 191 191
5.337935e-01 -3.237999e-01 -2.737969e+00 55 67 79
2.852464e-01 -2.905655e-01 -2.641870e+00 27 35 48
2.616788e-01 -1.662548e-01 -2.641666e+00 233 227 206
3.688406e-02 -2.782474e-01 -2.646248e+00 190 187 182
2.809931e-01 -3.502534e-01 -2.638425e+00 175 172 167
3.604325e-01 1.511017e-01 -2.771807e+00 27 31 32
1.285198e-01 -3.000622e-03 -2.623564e+00 24 24 29
4.978733e-01 -3.154481e-02 -2.759633e+00 168 164 129
1.064263e-01 -2.734495e-01 -2.651872e+00 164 160 159
1.445307e-01 -3.004533e-02 -2.618669e+00 52 78 103
5.672763e-02 -2.386321e-01 -2.652039e+00 60 65 73
3.887328e-01 -3.780875e-02 -2.745922e+00 45 47 46
4.356252e-01 -4.139730e-02 -2.757938e+00 190 186 183
4.661641e-01 1.733495e-01 -2.772922e+00 214 212 199
3.471471e-01 8.287521e-02 -2.763192e+00 119 121 93
3.462380e-01 7.514968e-02 -2.761526e+00 126 127 102
2.935050e-01 7.656830e-02 -2.756490e+00 77 87 62
3.624741e-01 2.333086e-01 -2.786855e+00 195 197 198
3.437425e-01 7.636274e-02 -2.761132e+00 46 46 21
2.857704e-01 7.502158e-02 -2.755034e+00 30 35 27
8.714738e-02 2.469420e-01 -2.790087e+00 40 44 54
2.716781e-01 9.999776e-02 -2.759092e+00 25 30 22
3.567572e-01 7.272992e-02 -2.762232e+00 42 43 28
3.286668e-01 2.900348e-02 -2.753032e+00 42 43 32
4.098295e-01 -5.774011e-02 -2.759814e+00 53 58 56
3.581173e-01 2.232550e-01 -2.785261e+00 188 188 193
5.968646e-01 -1.142994e-01 -2.748530e+00 57 56 54
3.804574e-01 -2.133553e-01 -2.737629e+00 58 57 86
4.151852e-01 2.290091e-01 -2.777254e+00 119 122 127
2.821098e-01 1.053622e-01 -2.758878e+00 30 38 25
3.725145e-01 2.203966e-01 -2.785650e+00 71 80 95
3.840667e-01 2.201153e-01 -2.786489e+00 70 79 94
4.577489e-01 2.039468e-01 -2.776024e+00 151 148 144
6.112076e-01 -1.640464e-01 -2.742669e+00 162 155 139
4.686968e-01 -6.855546e-02 -2.751450e+00 127 123 61
1.139544e-01 5.600744e-01 -2.804380e+00 180 180 172
6.767124e-01 5.460992e-01 -2.713216e+00 141 97 142
3.935650e-01 4.851577e-01 -2.678311e+00 209 225 240
3.567396e-01 4.607455e-01 -2.684902e+00 114 103 83
-4.464919e-01 4.472690e-01 -2.679156e+00 170 142 138
3.854115e-02 4.227271e-01 -2.762018e+00 170 169 167
2.801535e-01 4.118962e-01 -2.799299e+00 174 169 176
8.945352e-02 3.906529e-01 -2.759052e+00 155 152 147
-5.773751e-03 4.089635e-01 -2.818294e+00 156 157 160
-2.836259e-01 4.192934e-01 -2.830570e+00 45 33 34
1.554171e-01 3.521810e-01 -2.762489e+00 182 183 188
3.318044e-01 3.519646e-01 -2.770737e+00 148 162 170
7.547191e-02 3.325000e-01 -2.745339e+00 78 78 66
7.547191e-02 3.325000e-01 -2.745339e+00 78 78 66
-8.700127e-01 3.742804e-01 -2.867006e+00 164 169 150
2.494807e-02 2.450901e-01 -2.785927e+00 157 169 166
-1.226895e+00 2.536508e-01 -2.905749e+00 73 56 67
-1.155632e+00 2.417546e-01 -2.895377e+00 176 170 164
-1.250536e+00 2.222714e-01 -2.904236e+00 80 79 80
5.926796e-01 1.260127e-01 -2.644409e+00 191 188 181
-1.348194e-01 1.142413e-01 -2.609410e+00 223 219 216
-7.210208e-03 8.992047e-02 -2.565845e+00 57 56 61
-4.296062e-02 6.454382e-02 -2.525201e+00 147 146 147
5.681448e-01 5.329166e-02 -2.632446e+00 193 192 194
4.409990e-01 1.982845e-02 -2.766583e+00 185 185 182
3.819484e-01 -1.232933e-02 -2.754956e+00 60 63 36
4.281473e-01 -1.811588e-02 -2.762767e+00 195 195 195
1.992876e-02 -5.976516e-02 -2.568282e+00 105 103 106
7.698533e-01 -8.976846e-02 -2.566564e+00 123 136 140
-5.077303e-02 -1.423662e-01 -2.705246e+00 167 148 136
-3.313395e-02 -1.445030e-01 -2.706975e+00 124 118 111
1.045534e-01 -1.346589e-01 -2.618189e+00 33 33 20
1.045534e-01 -1.346589e-01 -2.618189e+00 33 33 20
9.043532e-01 -2.131417e-01 -2.722426e+00 54 44 60
-1.260973e-01 -1.615033e-01 -2.659763e+00 118 122 123
3.312300e-01 -1.967441e-01 -2.746593e+00 174 173 150
1.809401e-01 -1.504204e-01 -2.610178e+00 129 138 137
9.236651e-01 -2.397575e-01 -2.692627e+00 234 213 201
1.753693e-01 -1.764152e-01 -2.608605e+00 134 135 141
9.136486e-01 -2.565406e-01 -2.674035e+00 243 240 248
2.055184e-01 -1.966912e-01 -2.633735e+00 30 26 22
3.467540e-01 -2.165648e-01 -2.661982e+00 194 164 166
1.188280e-01 -2.158316e-01 -2.663355e+00 145 140 136
-1.201451e-01 -2.125399e-01 -2.643640e+00 204 201 205
-1.257840e-01 -2.179818e-01 -2.641595e+00 137 138 139
-1.259871e-01 -2.180847e-01 -2.642546e+00 137 138 139
3.320488e-01 -2.312260e-01 -2.657342e+00 139 114 114
3.356282e-01 -2.503233e-01 -2.649119e+00 28 33 52
8.957036e-01 -3.704815e-01 -2.675055e+00 174 176 189
9.056206e-01 -3.679795e-01 -2.665851e+00 238 242 243
6.216536e-01 -3.679904e-01 -2.725389e+00 88 87 95
-9.471811e-02 -3.334429e-01 -2.713629e+00 22 23 27
-9.471811e-02 -3.334429e-01 -2.713629e+00 22 23 27
5.998991e-01 -3.798586e-01 -2.728725e+00 157 165 164
5.461019e-01 -3.937284e-01 -2.721038e+00 170 181 159
7.755436e-01 -4.149096e-01 -2.593767e+00 190 190 204
2.191351e-01 -5.511220e-01 -2.657563e+00 26 11 4
8.920752e-02 -5.767937e-01 -2.696133e+00 57 58 79
1.020133e-01 -5.767054e-01 -2.693953e+00 149 145 142
1.057392e-01 -5.856264e-01 -2.692842e+00 157 154 150
1.187711e-01 -5.941450e-01 -2.691792e+00 64 71 90
2.041786e-01 -5.745993e-01 -2.661169e+00 130 123 117
5.145785e-01 -5.818790e-01 -2.603994e+00 190 191 194
1.121082e-01 -6.053546e-01 -2.692037e+00 154 153 149
5.128314e-01 -5.825080e-01 -2.600914e+00 156 157 162
-1.333096e-01 -4.331222e-01 -2.452995e+00 61 72 78
2.329098e-01 -5.952684e-01 -2.666940e+00 176 112 73
3.418393e-01 -5.726304e-01 -2.624526e+00 155 152 144
6.015349e-02 -6.276722e-01 -2.687476e+00 168 168 175
6.165117e-02 -6.299506e-01 -2.686868e+00 67 67 90
8.651044e-02 -6.350722e-01 -2.687705e+00 155 156 158
1.301654e-01 -6.461311e-01 -2.690636e+00 70 59 69
1.294681e-01 -6.483004e-01 -2.689518e+00 171 163 159
6.465313e-02 -6.464060e-01 -2.685052e+00 144 147 145
3.026043e-01 -6.832454e-01 -2.665238e+00 23 30 38
9.577883e-02 5.084827e-01 -2.780464e+00 167 163 164
7.677767e-02 4.830717e-01 -2.774631e+00 168 168 166
-2.546611e-01 4.631674e-01 -2.721107e+00 90 104 89
-2.787321e-01 4.553091e-01 -2.717521e+00 28 31 24
-2.433755e-02 4.610740e-01 -2.825179e+00 124 114 99
6.517836e-01 4.456869e-01 -2.687503e+00 245 242 252
1.551902e-01 3.880538e-01 -2.763186e+00 164 160 157
4.920339e-01 3.659551e-01 -2.694984e+00 142 136 155
1.913209e-01 3.394997e-01 -2.765446e+00 171 165 161
7.318355e-02 3.321773e-01 -2.744637e+00 147 135 113
-2.507594e-01 3.265240e-01 -2.822678e+00 166 155 151
-2.458044e-01 3.171393e-01 -2.822941e+00 176 166 157
4.090396e-01 3.023175e-01 -2.787751e+00 200 196 193
7.243370e-02 2.931041e-01 -2.799405e+00 126 113 97
-3.181703e-01 2.805766e-01 -2.815526e+00 165 155 148
4.955697e-01 2.591057e-01 -2.675184e+00 182 185 183
5.347775e-01 2.453726e-01 -2.681963e+00 170 170 170
5.570646e-01 2.204670e-01 -2.683572e+00 182 182 180
-1.264288e+00 2.532043e-01 -2.911159e+00 58 52 54
-1.251280e+00 2.350522e-01 -2.905715e+00 69 61 59
-1.088413e-02 1.017399e-01 -2.568928e+00 135 135 133
-7.504994e-03 8.360040e-02 -2.565427e+00 151 151 156
-2.766104e-01 5.213192e-02 -2.773041e+00 185 187 191
-4.076352e-02 5.775342e-02 -2.523407e+00 177 177 176
-6.275233e-01 -2.531026e-02 -2.705552e+00 80 81 86
4.306676e-01 -7.115490e-02 -2.763379e+00 162 172 148
3.722828e-02 -7.997336e-02 -2.562252e+00 178 166 146
-1.224165e-01 -1.507054e-01 -2.699091e+00 204 209 202
-1.229038e-01 -1.792076e-01 -2.648552e+00 178 179 172
-1.267485e-01 -1.984186e-01 -2.645799e+00 136 124 128
-1.280441e-01 -2.073966e-01 -2.646642e+00 200 197 200
1.307000e-01 -2.251265e-01 -2.664051e+00 176 171 167
3.368019e-01 -2.291464e-01 -2.656552e+00 191 155 154
3.196095e-01 -2.464870e-01 -2.651297e+00 134 116 111
8.153197e-02 -2.726887e-01 -2.654236e+00 167 168 162
-1.135797e-01 -2.804641e-01 -2.658931e+00 242 243 236
-5.292060e-02 -3.435238e-01 -2.717282e+00 135 137 110
9.004490e-01 -3.943723e-01 -2.644168e+00 241 244 228
4.377542e-01 -4.490849e-01 -2.694098e+00 48 59 72
5.724655e-02 -5.143309e-01 -2.664006e+00 148 152 148
3.242692e-01 -5.615027e-01 -2.710900e+00 107 100 81
5.037820e-02 -5.214057e-01 -2.664703e+00 135 142 135
2.095431e-01 -5.386537e-01 -2.664982e+00 46 26 17
1.140082e-01 -5.792591e-01 -2.696110e+00 141 135 137
1.989436e-01 -5.713485e-01 -2.663617e+00 167 163 162
2.895803e-01 -6.082711e-01 -2.683669e+00 178 191 180
6.944621e-02 -6.238158e-01 -2.687346e+00 164 167 171
5.261480e-01 -6.155544e-01 -2.601812e+00 58 58 74
5.167196e-01 -6.221914e-01 -2.597684e+00 127 115 115
6.354926e-02 -6.603171e-01 -2.684675e+00 173 173 172
4.161066e-02 -6.623973e-01 -2.681821e+00 159 166 162
4.555268e-02 -6.640975e-01 -2.683746e+00 132 139 131
4.555268e-02 -6.640975e-01 -2.683746e+00 132 139 131
5.052709e-02 5.368595e-01 -2.784209e+00 166 162 163
9.445048e-02 4.766004e-01 -2.773988e+00 178 174 171
1.432230e-01 4.755622e-01 -2.778324e+00 149 144 148
6.652889e-02 4.552269e-01 -2.770430e+00 169 166 161
-2.690705e-01 4.594106e-01 -2.731822e+00 17 19 15
-1.759903e-02 4.524072e-01 -2.823938e+00 167 154 132
-4.477027e-01 4.330615e-01 -2.705205e+00 51 48 43
-2.000389e-01 4.180619e-01 -2.794692e+00 149 131 121
1.110785e-01 3.902777e-01 -2.759370e+00 150 146 145
4.045049e-02 3.385532e-01 -2.805504e+00 178 162 148
1.200672e-01 3.010221e-01 -2.746315e+00 155 155 153
-9.714034e-01 4.064393e-01 -2.921737e+00 20 34 51
-2.996368e-01 2.879286e-01 -2.814958e+00 45 44 49
-2.888118e-01 2.831104e-01 -2.816415e+00 50 46 47
5.155259e-01 2.583762e-01 -2.675213e+00 148 147 145
-2.943094e-01 2.710568e-01 -2.814172e+00 45 47 48
5.294364e-01 2.556123e-01 -2.680586e+00 151 149 150
5.394353e-01 2.487481e-01 -2.682522e+00 178 176 177
5.194103e-01 2.390651e-01 -2.678615e+00 133 133 136
-3.230271e-02 1.724192e-01 -2.577858e+00 137 137 139
-1.075656e-02 1.579022e-01 -2.577337e+00 145 148 150
-7.384859e-02 1.580096e-01 -2.575946e+00 163 163 165
-1.273084e+00 2.484747e-01 -2.909277e+00 32 26 41
-1.151318e+00 2.371973e-01 -2.895159e+00 50 50 42
-1.190480e+00 2.179185e-01 -2.893421e+00 50 43 51
3.465853e-01 8.675739e-02 -2.764814e+00 144 147 117
-1.881992e-02 8.880674e-02 -2.564020e+00 27 28 31
-6.465778e-01 -1.656352e-02 -2.704626e+00 33 32 34
-8.689182e-02 -1.591306e-01 -2.697699e+00 56 63 78
7.340626e-02 -1.556172e-01 -2.623378e+00 167 171 166
2.318949e-01 -1.735808e-01 -2.648073e+00 178 172 160
-1.247254e-01 -1.829740e-01 -2.647557e+00 165 167 166
-1.219007e-01 -2.022675e-01 -2.644714e+00 130 121 123
8.799051e-01 -3.090334e-01 -2.693818e+00 239 247 247
-7.251866e-02 -3.600987e-01 -2.714201e+00 118 118 90
7.748103e-01 -4.185913e-01 -2.596571e+00 194 194 195
-3.751238e-02 -4.285271e-01 -2.708529e+00 16 20 23
1.873549e-02 -4.420445e-01 -2.703153e+00 21 24 32
1.571336e-01 -6.021094e-01 -2.697371e+00 186 147 131
1.574826e-01 -5.995091e-01 -2.694794e+00 186 147 131
5.233431e-01 -5.829962e-01 -2.603534e+00 175 174 179
5.067324e-01 -5.878524e-01 -2.601346e+00 144 147 152
8.884918e-02 -6.133616e-01 -2.687416e+00 121 119 123
5.298246e-01 -6.050237e-01 -2.603044e+00 150 150 151
4.317127e-01 -6.268298e-01 -2.626997e+00 172 167 172
4.830455e-01 -6.230001e-01 -2.594656e+00 150 150 152
5.395760e-02 -6.604807e-01 -2.681914e+00 174 182 160
8.693920e-02 -6.779511e-01 -2.682076e+00 155 151 142
-1.613860e-03 5.755949e-01 -2.836755e+00 73 75 79
7.469989e-02 5.259225e-01 -2.785433e+00 168 164 162
7.820314e-02 4.888233e-01 -2.775715e+00 161 157 156
-2.854079e-01 4.548358e-01 -2.717412e+00 18 21 14
-5.614643e-01 4.451085e-01 -2.724185e+00 84 71 88
-5.144005e-01 4.137967e-01 -2.707483e+00 189 185 167
-5.131467e-01 4.131963e-01 -2.706287e+00 189 185 167
-3.434710e-01 3.890554e-01 -2.830029e+00 43 43 45
-2.310537e-01 3.694724e-01 -2.826213e+00 163 149 136
-3.437318e-01 3.683613e-01 -2.827325e+00 154 136 119
5.452582e-01 3.332239e-01 -2.700403e+00 153 153 155
-4.597959e-01 3.558452e-01 -2.795183e+00 43 44 46
-2.799003e-01 3.141023e-01 -2.820528e+00 45 45 41
-4.431986e-01 3.068749e-01 -2.818094e+00 168 151 145
5.093993e-01 2.722501e-01 -2.678176e+00 147 148 143
-8.785641e-01 3.491920e-01 -2.861566e+00 158 163 162
5.639025e-01 2.706259e-01 -2.685936e+00 144 142 148
-8.779476e-01 3.387021e-01 -2.866470e+00 42 41 47
5.027870e-01 2.494299e-01 -2.675982e+00 143 143 142
-3.081082e-02 1.787170e-01 -2.581086e+00 148 149 151
-4.580971e-02 1.448243e-01 -2.575131e+00 149 149 151
-6.255907e-02 1.364105e-01 -2.572802e+00 167 165 166
-3.289758e-02 5.827058e-02 -2.523835e+00 163 167 170
3.821182e-01 -1.321793e-01 -2.753520e+00 145 152 143
8.323744e-02 -1.433072e-01 -2.626095e+00 158 164 155
3.506972e-01 -2.044182e-01 -2.735616e+00 192 190 190
-1.354581e-01 -1.999451e-01 -2.639940e+00 132 129 137
-1.271628e-01 -2.093173e-01 -2.642721e+00 130 121 127
-1.271628e-01 -2.093173e-01 -2.642721e+00 130 121 127
-9.995894e-02 -2.281635e-01 -2.636806e+00 157 167 169
-1.305674e-01 -2.711807e-01 -2.659795e+00 62 70 91
8.277887e-01 -3.964476e-01 -2.609671e+00 187 179 182
7.771409e-01 -4.543351e-01 -2.602737e+00 217 216 205
1.100572e-02 -4.479177e-01 -2.702039e+00 24 27 36
3.326428e-01 -5.627188e-01 -2.710322e+00 25 25 13
9.516314e-02 -5.746589e-01 -2.696154e+00 167 167 155
8.488067e-02 -5.864742e-01 -2.693336e+00 164 166 153
9.151213e-02 -5.881485e-01 -2.693911e+00 152 149 144
9.587344e-02 -6.046373e-01 -2.692782e+00 170 169 167
1.207484e-01 -6.110033e-01 -2.691992e+00 175 171 162
2.958919e-01 -6.246166e-01 -2.687670e+00 56 64 75
5.091811e-02 -6.223162e-01 -2.687498e+00 61 67 82
1.257036e-01 -6.455820e-01 -2.691561e+00 160 151 150
4.323572e-02 -6.681011e-01 -2.682662e+00 48 60 75
-2.613232e-02 4.705379e-01 -2.824410e+00 150 126 133
-4.896883e-01 3.921506e-01 -2.798775e+00 14 15 19
7.119425e-01 3.529084e-01 -2.684773e+00 251 250 246
-1.215858e+00 2.662493e-01 -2.906399e+00 76 67 68
3.938747e-01 1.031618e-01 -2.772823e+00 145 133 102
4.569671e-01 -6.443378e-03 -2.767561e+00 194 193 189
9.064145e-01 -2.087161e-01 -2.717073e+00 174 170 164
-1.027932e-01 -1.733218e-01 -2.694304e+00 50 59 69
-9.332079e-02 -1.781042e-01 -2.693810e+00 58 67 76
-8.531700e-02 -2.323197e-01 -2.646083e+00 164 181 191
-2.202726e-01 -3.181872e-01 -2.628531e+00 165 163 168
2.910447e-01 -5.685470e-01 -2.706357e+00 27 27 29
1.058494e-01 -5.681931e-01 -2.694478e+00 169 167 162
4.036250e-01 -5.942488e-01 -2.632284e+00 123 123 125
4.942959e-01 -5.889821e-01 -2.600146e+00 163 164 168
4.726912e-02 -6.176740e-01 -2.688697e+00 157 156 154
1.256607e-01 -6.518770e-01 -2.690059e+00 52 54 77
5.429360e-02 -6.604129e-01 -2.680246e+00 165 170 160
5.429360e-02 -6.604129e-01 -2.680246e+00 165 170 160
2.202775e-01 -6.396935e-01 -2.633810e+00 31 33 38
-2.569260e-01 4.747832e-01 -2.717151e+00 38 43 36
6.860629e-01 4.982604e-01 -2.724279e+00 131 130 144
-8.658525e-01 3.227857e-01 -2.857300e+00 37 42 47
-1.919130e-02 1.651280e-01 -2.578961e+00 147 148 150
-1.249989e+00 2.576024e-01 -2.901493e+00 67 63 65
3.905868e-01 6.687422e-02 -2.765806e+00 120 126 85
-1.135769e-01 -3.061265e-04 -2.539183e+00 152 155 160
-9.555309e-02 -1.872841e-01 -2.690677e+00 35 40 47
-8.657857e-02 -1.931893e-01 -2.691107e+00 27 28 33
7.917774e-01 -4.063277e-01 -2.604226e+00 245 244 241
7.853205e-01 -4.492041e-01 -2.606448e+00 252 252 254
5.031575e-01 -5.076954e-01 -2.730191e+00 32 36 42
2.202713e-01 -5.808495e-01 -2.662455e+00 192 116 66
4.284344e-02 -6.248153e-01 -2.683568e+00 35 39 53
1.006874e-01 -6.379866e-01 -2.686041e+00 164 160 158
7.930330e-02 -6.637195e-01 -2.684066e+00 161 158 153
7.376233e-02 5.523050e-01 -2.786542e+00 155 153 151
9.528897e-02 3.836948e-01 -2.756930e+00 177 176 171
-4.360310e-01 3.941754e-01 -2.810616e+00 46 52 62
-1.046041e-01 3.183577e-01 -2.782923e+00 152 165 173
5.513092e-01 2.744598e-01 -2.685629e+00 181 177 174
5.393605e-01 2.250053e-01 -2.680489e+00 123 123 129
9.008206e-01 -2.447315e-01 -2.726120e+00 47 45 46
4.613850e-01 -2.769314e-01 -2.700623e+00 102 142 168
-9.413114e-02 -2.554439e-01 -2.634423e+00 151 155 154
1.228473e-01 -5.819715e-01 -2.699077e+00 173 171 176
9.632881e-02 -5.833332e-01 -2.691970e+00 166 163 155
5.780984e-02 -6.236381e-01 -2.685013e+00 147 148 152
5.529613e-02 -6.454330e-01 -2.681245e+00 145 149 143
7.163801e-02 4.888493e-01 -2.778028e+00 157 153 152
-2.607327e-01 4.806758e-01 -2.716301e+00 32 41 28
3.107111e-03 -3.584951e-01 -2.710504e+00 41 44 53
7.702143e-01 -4.259735e-01 -2.595936e+00 254 254 254
1.257889e-01 -6.136153e-01 -2.691963e+00 169 164 158
9.697879e-02 -6.603525e-01 -2.686453e+00 60 66 78
9.697879e-02 -6.603525e-01 -2.686453e+00 60 66 78
1.111847e-01 3.053245e-01 -2.744149e+00 150 149 145
-3.311193e-01 2.327292e-01 -2.807217e+00 152 143 126
-3.002781e-02 1.099903e-01 -2.566850e+00 135 133 134
4.728767e-02 -6.322802e-01 -2.680588e+00 33 39 53
-5.156385e-01 4.588656e-01 -2.703146e+00 35 34 42
4.012804e-01 3.340440e-01 -2.792538e+00 28 41 23
-6.171760e-01 -1.181945e-01 -2.752997e+00 24 27 34
-8.327694e-02 -1.756853e-01 -2.680951e+00 36 44 55
6.853995e-01 -5.500144e-01 -2.656412e+00 203 199 187
-2.499662e-01 4.505554e-01 -2.779797e+00 21 24 29
-3.350665e-01 6.126500e-01 -2.706979e+00 7 12 18
1.239075e-01 5.536025e-01 -2.801102e+00 164 161 165
2.370347e-01 5.144824e-01 -2.822720e+00 221 215 211
1.032551e-01 4.757130e-01 -2.777143e+00 133 132 130
1.791294e-01 4.180288e-01 -2.770528e+00 157 152 155
2.590543e-01 4.146194e-01 -2.819525e+00 228 227 231
-1.136252e+00 4.684140e-01 -2.903680e+00 103 86 101
-1.167713e+00 4.592984e-01 -2.908292e+00 174 170 169
1.458443e-01 3.510295e-01 -2.761759e+00 151 155 161
4.597216e-02 3.306971e-01 -2.805005e+00 170 158 141
1.044196e-01 3.238356e-01 -2.750526e+00 56 61 64
1.312438e-01 3.209173e-01 -2.752079e+00 184 173 171
4.190758e-01 3.192202e-01 -2.794554e+00 84 83 89
4.050000e-01 3.072679e-01 -2.790420e+00 93 90 97
-2.778534e-01 2.616476e-01 -2.814672e+00 73 69 70
2.911177e-01 2.637079e-01 -2.788496e+00 190 189 185
4.653558e-01 1.790252e-01 -2.777374e+00 123 125 119
-3.242232e-02 1.900263e-01 -2.582473e+00 150 145 149
-5.871256e-03 1.762372e-01 -2.580500e+00 168 166 169
5.644881e-01 1.278025e-01 -2.754031e+00 53 134 182
5.644881e-01 1.278025e-01 -2.754031e+00 53 134 182
4.120050e-01 1.065824e-01 -2.765484e+00 186 155 150
4.709242e-01 7.611306e-02 -2.772893e+00 81 90 100
5.957713e-01 7.053834e-02 -2.638972e+00 182 178 177
-4.221530e-02 6.455520e-02 -2.523772e+00 152 151 154
-1.748754e-02 6.125407e-02 -2.522895e+00 50 49 62
-1.748754e-02 6.125407e-02 -2.522895e+00 50 49 62
-1.052353e-01 -4.447849e-03 -2.545769e+00 202 207 211
4.411558e-01 -9.150047e-02 -2.760225e+00 72 70 76
-5.928246e-02 -2.729805e-02 -2.544995e+00 129 128 123
-6.140644e-02 -2.781046e-02 -2.544542e+00 98 94 91
3.963065e-01 -1.745339e-01 -2.747290e+00 202 202 202
-1.127112e-01 -1.727497e-01 -2.649016e+00 136 135 140
-3.919020e-01 -2.419684e-01 -2.712496e+00 128 129 124
-1.337253e-01 -2.104285e-01 -2.643374e+00 137 137 139
6.036038e-01 -3.740047e-01 -2.729597e+00 169 169 178
6.525439e-01 -3.643016e-01 -2.613807e+00 254 254 247
-5.465746e-01 -4.838904e-01 -2.587755e+00 201 196 200
-3.767128e-01 -4.535636e-01 -2.599087e+00 171 169 172
7.065377e-01 -4.835851e-01 -2.651322e+00 155 171 171
-3.641674e-01 5.671879e-01 -2.730648e+00 25 34 48
3.208789e-01 4.919281e-01 -2.681551e+00 203 186 170
1.082267e-01 5.037842e-01 -2.784740e+00 157 155 156
8.824254e-02 4.788746e-01 -2.778483e+00 174 173 171
1.067101e-01 4.632702e-01 -2.776002e+00 189 187 184
3.566489e-01 4.487149e-01 -2.681573e+00 214 192 186
3.907188e-02 4.261907e-01 -2.764135e+00 153 151 150
1.489180e-01 3.998573e-01 -2.766136e+00 164 160 158
6.643392e-02 3.961567e-01 -2.757638e+00 174 170 169
7.516216e-02 3.850204e-01 -2.756612e+00 146 143 138
1.945159e-01 3.850588e-01 -2.766974e+00 170 171 175
4.052132e-01 3.886743e-01 -2.773967e+00 251 250 238
2.667310e-01 3.695564e-01 -2.772834e+00 197 198 203
1.155462e-01 3.612673e-01 -2.756241e+00 181 177 174
3.748006e-01 3.718075e-01 -2.778548e+00 157 152 154
1.798803e-01 3.577854e-01 -2.769309e+00 165 170 174
1.312660e-01 3.481264e-01 -2.754620e+00 126 131 132
-1.157554e+00 4.450240e-01 -2.907543e+00 89 86 96
9.784540e-02 3.467561e-01 -2.750907e+00 179 175 172
1.072517e-01 3.450109e-01 -2.751181e+00 184 183 181
-1.060136e-01 3.467705e-01 -2.789910e+00 169 154 147
1.027339e-01 3.336707e-01 -2.750262e+00 135 135 138
-2.014445e-01 3.254702e-01 -2.827753e+00 182 164 150
1.308851e-01 3.184771e-01 -2.753869e+00 179 169 168
1.683326e-01 3.121843e-01 -2.753332e+00 186 180 170
2.289815e-01 2.971890e-01 -2.789075e+00 128 131 104
-2.795771e-01 2.576031e-01 -2.814463e+00 164 154 152
-5.942844e-02 2.558277e-01 -2.790480e+00 187 178 168
-3.342237e-01 2.236505e-01 -2.807835e+00 131 126 107
4.743703e-01 1.884986e-01 -2.776865e+00 195 181 174
-7.054870e-02 1.280700e-01 -2.570036e+00 144 144 152
4.709147e-01 7.782318e-02 -2.774410e+00 188 195 192
-2.550057e-02 1.044054e-01 -2.566059e+00 141 139 142
1.015178e+00 4.940168e-02 -2.784173e+00 176 162 136
1.008638e+00 1.977857e-02 -2.776705e+00 178 169 145
5.676229e-01 5.079809e-02 -2.632352e+00 201 199 197
4.290200e-01 -3.504166e-02 -2.761669e+00 190 186 185
4.505054e-01 -3.844107e-02 -2.763519e+00 177 172 169
3.901164e-01 -1.663896e-01 -2.748342e+00 163 164 168
-3.070206e-01 -1.985653e-01 -2.731758e+00 191 187 186
-3.298552e-01 -2.243302e-01 -2.717853e+00 116 121 125
5.646222e-01 -2.427754e-01 -2.712728e+00 52 53 57
5.646222e-01 -2.427754e-01 -2.712728e+00 52 53 57
-1.755812e-01 -2.323944e-01 -2.662934e+00 22 20 30
-1.980330e-01 -3.382627e-01 -2.621510e+00 51 50 89
6.644799e-01 -4.552269e-01 -2.709828e+00 185 179 165
-4.831105e-01 -4.529128e-01 -2.614758e+00 82 102 110
-5.423822e-01 -5.009521e-01 -2.580201e+00 130 141 145
-5.302539e-01 -5.078049e-01 -2.579241e+00 132 139 142
-5.076588e-01 -5.226801e-01 -2.579341e+00 130 142 145
-5.076588e-01 -5.226801e-01 -2.579341e+00 130 142 145
2.539063e-01 -4.632830e-01 -2.609616e+00 55 56 59
3.193292e-01 4.941577e-01 -2.681147e+00 241 244 244
1.080582e-01 4.833393e-01 -2.779210e+00 170 169 168
1.131469e-01 4.817353e-01 -2.781412e+00 196 196 196
1.410816e-01 4.580869e-01 -2.778463e+00 164 163 162
1.233446e-01 4.488820e-01 -2.773205e+00 179 176 175
1.614374e-01 4.402936e-01 -2.775246e+00 154 153 149
1.156608e-01 3.930283e-01 -2.759973e+00 154 150 150
