ply
format ascii 1.0
element face 0
property list uchar int vertex_indices
element vertex 920
property float x
property float y
property float z
property uchar diffuse_red
property uchar diffuse_green
property uchar diffuse_blue
end_header
3.245819e-02 6.220468e-03 -2.596310e+00 36 53 69
7.597076e-01 -5.656162e-03 -2.649073e+00 174 176 171
-4.216342e-01 -1.363350e-02 -2.687187e+00 167 152 155
-2.193354e-01 -2.507126e-02 -2.760283e+00 63 61 65
-2.193354e-01 -2.507126e-02 -2.760283e+00 63 61 65
-3.822826e-01 -2.324677e-02 -2.733611e+00 34 43 47
-3.822826e-01 -2.324677e-02 -2.733611e+00 34 43 47
7.973449e-01 -1.898316e-02 -2.639491e+00 210 194 226
-6.298059e-01 -3.386029e-02 -2.717495e+00 29 28 34
-3.999562e-01 -3.874759e-02 -2.732100e+00 182 184 197
7.171793e-01 -4.257513e-02 -2.631443e+00 192 170 166
2.975165e-02 -2.771195e-02 -2.587514e+00 37 32 32
-2.195483e-01 -6.723117e-02 -2.755241e+00 209 204 200
-2.165023e-01 -6.829359e-02 -2.755471e+00 205 201 197
5.245352e-01 -8.134975e-02 -2.747627e+00 172 166 151
5.564892e-01 -8.397667e-02 -2.749266e+00 102 87 90
7.276132e-01 -7.532585e-02 -2.653236e+00 245 245 247
-2.588564e-01 -8.857122e-02 -2.752223e+00 206 202 199
7.430182e-01 -7.315854e-02 -2.616096e+00 248 241 246
5.613054e-01 -8.798799e-02 -2.723357e+00 162 141 139
6.086367e-01 -1.031626e-01 -2.750938e+00 81 73 70
7.633181e-01 -7.737415e-02 -2.593749e+00 177 184 197
5.424071e-01 -1.012609e-01 -2.745616e+00 48 46 49
5.994627e-01 -1.056962e-01 -2.746015e+00 64 63 58
-4.439159e-01 -1.007174e-01 -2.728010e+00 25 31 28
7.627011e-01 -8.312423e-02 -2.575431e+00 196 189 205
6.313087e-01 -1.189499e-01 -2.747314e+00 167 160 144
-1.983917e-01 -1.099597e-01 -2.749076e+00 209 206 200
4.129683e-01 -1.141526e-01 -2.748596e+00 203 200 193
-2.795319e-01 -1.148334e-01 -2.748734e+00 204 201 196
6.982954e-01 -1.082557e-01 -2.661200e+00 189 170 144
2.150604e-01 -9.406085e-02 -2.656651e+00 131 131 121
6.387620e-01 -1.297242e-01 -2.746389e+00 182 173 159
6.158599e-01 -1.308291e-01 -2.744335e+00 168 161 151
6.158599e-01 -1.308291e-01 -2.744335e+00 168 161 151
-7.460935e-02 -1.118155e-01 -2.712990e+00 134 114 105
7.110461e-01 -1.110134e-01 -2.623489e+00 202 194 191
-2.064179e-01 -1.359871e-01 -2.747014e+00 212 205 197
7.028951e-01 -1.199702e-01 -2.617469e+00 216 218 222
-1.810868e-01 -1.383660e-01 -2.747315e+00 209 201 188
6.685848e-01 -1.374331e-01 -2.680870e+00 105 117 139
2.699443e-01 -1.193173e-01 -2.658044e+00 189 186 179
6.113848e-01 -1.563071e-01 -2.739487e+00 67 64 54
6.053116e-01 -1.569378e-01 -2.738649e+00 64 62 57
-5.053882e-02 -1.374522e-01 -2.709616e+00 124 100 94
2.682142e-01 -1.261557e-01 -2.657476e+00 133 126 133
6.618974e-01 -1.457376e-01 -2.655323e+00 217 168 193
6.621287e-01 -1.455755e-01 -2.651860e+00 63 31 38
6.621287e-01 -1.455755e-01 -2.651860e+00 63 31 38
2.685840e-01 -1.297184e-01 -2.655905e+00 81 37 54
6.291803e-01 -1.713703e-01 -2.731495e+00 211 208 201
6.337125e-01 -1.747170e-01 -2.731111e+00 195 193 193
6.474007e-01 -1.674479e-01 -2.670998e+00 222 232 233
2.669696e-01 -1.485040e-01 -2.657272e+00 187 185 174
1.947999e-01 -1.374444e-01 -2.619811e+00 200 210 222
-3.951361e-01 -1.853691e-01 -2.734536e+00 158 157 163
3.811599e-01 -1.969554e-01 -2.737485e+00 173 171 181
-5.246257e-01 -2.215135e-01 -2.753587e+00 93 93 104
-3.746589e-01 -2.034953e-01 -2.726969e+00 147 148 137
-2.735929e-01 -2.108039e-01 -2.739594e+00 201 196 192
-2.388860e-01 -2.131623e-01 -2.738776e+00 206 204 191
-3.160549e-01 -2.160203e-01 -2.734623e+00 193 192 199
-5.083401e-01 -2.496574e-01 -2.760662e+00 25 19 15
9.037841e-01 -2.538380e-01 -2.642114e+00 237 238 228
9.037841e-01 -2.538380e-01 -2.642114e+00 237 238 228
9.037841e-01 -2.538380e-01 -2.642114e+00 237 238 228
9.001616e-01 -2.764922e-01 -2.679891e+00 250 244 239
7.555864e-01 -2.814582e-01 -2.728808e+00 109 112 83
8.861056e-01 -2.897566e-01 -2.708786e+00 205 199 207
-4.588426e-01 -2.625297e-01 -2.720332e+00 132 128 128
-4.970768e-01 -2.671069e-01 -2.720449e+00 186 175 185
8.898008e-01 -2.704841e-01 -2.637457e+00 229 230 229
7.316260e-01 -2.894490e-01 -2.725408e+00 126 117 106
8.824611e-01 -2.961563e-01 -2.669917e+00 236 243 231
7.602213e-01 -3.062272e-01 -2.728817e+00 200 193 200
8.708945e-01 -3.041154e-01 -2.664442e+00 232 238 247
8.651508e-01 -3.166425e-01 -2.680132e+00 47 49 68
8.651508e-01 -3.166425e-01 -2.680132e+00 47 49 68
2.852556e-01 -2.734580e-01 -2.689821e+00 214 204 198
9.244797e-01 -3.253954e-01 -2.643457e+00 216 229 213
9.271790e-01 -3.230410e-01 -2.635374e+00 87 95 140
9.146314e-01 -3.296506e-01 -2.646631e+00 102 86 105
9.203020e-01 -3.303351e-01 -2.639901e+00 133 147 146
9.207068e-01 -3.287080e-01 -2.632528e+00 97 107 148
6.900702e-01 -3.298244e-01 -2.690179e+00 114 118 116
9.125693e-01 -3.375139e-01 -2.638755e+00 219 230 220
6.925400e-01 -3.296766e-01 -2.679236e+00 171 171 166
-1.688948e-01 -2.851683e-01 -2.643514e+00 157 159 175
-2.064960e-01 -2.811453e-01 -2.622347e+00 15 11 16
-2.064960e-01 -2.811453e-01 -2.622347e+00 15 11 16
6.688835e-01 -3.453971e-01 -2.683723e+00 135 151 174
6.840767e-01 -3.389050e-01 -2.658223e+00 145 144 160
3.688850e-02 -2.924507e-01 -2.656881e+00 175 175 182
2.388007e-01 -3.205038e-01 -2.706906e+00 183 190 172
-1.387335e-01 -3.095384e-01 -2.670797e+00 26 27 31
6.231933e-01 -3.748884e-01 -2.731117e+00 176 175 167
2.328117e-01 -3.285664e-01 -2.702937e+00 202 180 157
8.253968e-01 -3.707024e-01 -2.643039e+00 229 229 222
-9.806765e-02 -3.780908e-01 -2.716347e+00 25 27 25
7.344613e-01 -3.849539e-01 -2.599093e+00 211 210 206
1.495417e-01 -3.877920e-01 -2.716573e+00 168 158 152
4.886024e-01 -4.117590e-01 -2.713787e+00 165 173 176
2.027274e-01 -3.881635e-01 -2.708196e+00 223 232 239
-1.900225e-01 -3.522979e-01 -2.630090e+00 40 41 62
7.784467e-01 -4.045957e-01 -2.598883e+00 207 208 206
2.159389e-01 -3.476544e-01 -2.624885e+00 128 151 159
-2.350519e-01 -3.716173e-01 -2.635699e+00 183 179 180
-2.403286e-01 -3.894143e-01 -2.618642e+00 156 168 169
5.050766e-01 -4.803309e-01 -2.732113e+00 140 139 122
2.353351e-01 -4.263553e-01 -2.668438e+00 222 209 209
2.347534e-01 -4.284201e-01 -2.652184e+00 160 175 180
4.184773e-01 -4.843303e-01 -2.691506e+00 98 89 119
2.219631e-01 -4.390053e-01 -2.628406e+00 53 60 67
-2.833091e-01 -4.492243e-01 -2.607752e+00 39 42 56
-2.833091e-01 -4.492243e-01 -2.607752e+00 39 42 56
-3.129454e-01 -4.664817e-01 -2.600322e+00 23 31 40
-2.906031e-01 -4.708348e-01 -2.609544e+00 152 154 141
4.304732e-01 -5.071286e-01 -2.649120e+00 110 110 119
2.278789e-01 -5.092526e-01 -2.676060e+00 29 36 29
4.231114e-01 -5.119754e-01 -2.647093e+00 104 104 115
4.053092e-01 -5.278309e-01 -2.669140e+00 176 171 190
-2.788819e-01 -4.794718e-01 -2.596130e+00 215 217 212
-3.004793e-01 -4.953868e-01 -2.606675e+00 201 201 204
-3.004793e-01 -4.953868e-01 -2.606675e+00 201 201 204
4.229819e-01 -5.160469e-01 -2.635138e+00 188 182 186
-3.704048e-01 -5.017493e-01 -2.592155e+00 165 167 154
4.058580e-01 -5.278394e-01 -2.646579e+00 108 113 113
-3.166345e-01 -4.998728e-01 -2.596967e+00 183 177 187
4.087239e-01 -5.253826e-01 -2.631984e+00 180 169 179
-4.328865e-01 -5.187090e-01 -2.562917e+00 99 110 110
-3.123896e-01 -5.160532e-01 -2.592995e+00 11 14 21
1.531973e-02 -5.507840e-01 -2.677822e+00 42 37 42
3.869167e-01 -5.425381e-01 -2.636608e+00 85 77 70
2.007816e-01 -5.626177e-01 -2.664410e+00 198 145 102
2.136559e-01 -5.690134e-01 -2.664685e+00 179 116 90
-1.056420e-02 6.661627e-01 -2.813914e+00 236 230 228
4.829973e-01 6.947614e-01 -2.803767e+00 109 107 104
1.415712e-02 6.615468e-01 -2.838827e+00 152 130 134
5.678358e-01 6.449209e-01 -2.730003e+00 188 188 179
1.713848e-01 6.438399e-01 -2.830483e+00 108 104 122
4.972507e-01 6.320284e-01 -2.741898e+00 247 239 248
1.034285e-02 6.411861e-01 -2.836328e+00 216 205 205
2.933002e-01 6.488872e-01 -2.838400e+00 179 167 168
2.983406e-01 6.446508e-01 -2.843932e+00 89 87 91
6.156063e-01 6.413408e-01 -2.738179e+00 114 121 118
6.599991e-01 6.290191e-01 -2.708122e+00 44 50 73
6.418857e-01 6.211669e-01 -2.703392e+00 70 76 110
1.963314e-01 6.135898e-01 -2.828160e+00 47 44 56
6.351600e-01 6.135320e-01 -2.717413e+00 57 47 86
-4.996803e-02 6.243945e-01 -2.870838e+00 179 175 168
-5.543804e-02 6.107225e-01 -2.866971e+00 67 76 77
5.459930e-01 5.730336e-01 -2.729708e+00 190 185 191
-1.453869e-01 5.824191e-01 -2.854206e+00 36 43 53
-1.334931e-01 5.804290e-01 -2.851251e+00 61 65 76
-1.098638e-01 5.757793e-01 -2.853549e+00 146 149 156
-1.295424e-01 5.731954e-01 -2.845452e+00 98 105 112
2.003661e-01 5.614003e-01 -2.830726e+00 110 109 107
-1.284428e-01 5.754953e-01 -2.853411e+00 40 44 52
-1.611656e-01 5.712415e-01 -2.848431e+00 28 34 45
-1.133053e-01 5.684086e-01 -2.851900e+00 152 158 157
2.792204e-01 5.410231e-01 -2.791527e+00 209 202 200
5.986164e-02 5.331093e-01 -2.790320e+00 186 182 181
2.941291e-01 5.360424e-01 -2.781697e+00 247 237 240
1.364313e-02 5.415725e-01 -2.822246e+00 29 31 29
-6.902174e-02 5.391782e-01 -2.821159e+00 99 102 111
-2.266262e-02 5.303232e-01 -2.839946e+00 137 139 144
-1.710824e-01 5.310598e-01 -2.841957e+00 48 52 64
6.125568e-01 5.185523e-01 -2.711286e+00 247 246 250
6.125568e-01 5.185523e-01 -2.711286e+00 247 246 250
9.083905e-02 4.866073e-01 -2.781657e+00 166 165 160
9.121592e-02 4.752018e-01 -2.781625e+00 131 127 128
9.121592e-02 4.752018e-01 -2.781625e+00 131 127 128
1.226852e-01 4.738007e-01 -2.785359e+00 158 154 153
1.677374e-02 4.660072e-01 -2.777645e+00 153 149 148
6.863033e-02 4.664769e-01 -2.779651e+00 154 150 149
1.306844e-01 4.659603e-01 -2.781876e+00 167 166 164
1.320977e-01 4.586405e-01 -2.781663e+00 154 150 147
7.096576e-01 4.933172e-01 -2.703925e+00 242 240 223
5.459874e-01 4.806722e-01 -2.768999e+00 68 74 66
2.939019e-01 4.594736e-01 -2.790670e+00 86 85 100
7.158927e-01 4.846126e-01 -2.703242e+00 223 214 207
1.285167e-01 4.424329e-01 -2.779584e+00 154 150 149
2.387910e-01 4.527539e-01 -2.804303e+00 143 126 107
-5.563748e-01 4.712840e-01 -2.702883e+00 45 35 34
-2.641096e-02 4.513321e-01 -2.827474e+00 173 162 150
5.324856e-01 4.686454e-01 -2.793399e+00 114 104 98
-3.127879e-01 4.434511e-01 -2.751816e+00 16 19 10
2.376542e-01 4.389754e-01 -2.819581e+00 73 62 58
2.376542e-01 4.389754e-01 -2.819581e+00 73 62 58
5.652539e-01 4.507060e-01 -2.767203e+00 44 42 43
5.671254e-01 4.489271e-01 -2.769629e+00 253 253 255
-5.104273e-01 4.447046e-01 -2.732414e+00 188 177 193
5.055535e-01 4.234819e-01 -2.794340e+00 171 164 158
2.914948e-01 4.043719e-01 -2.799227e+00 208 195 185
-6.309063e-01 4.470868e-01 -2.736009e+00 107 101 113
-6.193532e-02 4.046455e-01 -2.816702e+00 155 158 154
-6.334695e-01 4.445188e-01 -2.733612e+00 216 206 213
-6.246833e-01 4.434538e-01 -2.737282e+00 46 33 64
-6.347533e-01 4.377861e-01 -2.734611e+00 45 44 37
-5.727737e-01 4.248470e-01 -2.729775e+00 185 178 160
2.468658e-01 3.937685e-01 -2.814114e+00 110 99 95
-5.368959e-01 4.144762e-01 -2.724793e+00 198 199 163
-2.143503e-01 3.975215e-01 -2.803860e+00 157 167 175
-6.069113e-01 4.271870e-01 -2.732776e+00 46 50 45
2.401466e-01 3.888577e-01 -2.813276e+00 149 143 144
-2.892289e-01 4.084139e-01 -2.839395e+00 167 154 139
-3.516720e-01 4.111150e-01 -2.831742e+00 29 33 34
-3.533636e-01 4.077095e-01 -2.834425e+00 24 25 28
-3.018000e-01 4.034153e-01 -2.840912e+00 115 110 99
2.874380e-01 3.717769e-01 -2.771330e+00 211 223 231
-3.162664e-01 4.034314e-01 -2.840153e+00 104 104 100
-2.764222e-01 3.992451e-01 -2.837271e+00 63 64 59
-2.975039e-01 3.902840e-01 -2.835693e+00 68 72 75
1.039757e-01 3.507575e-01 -2.755303e+00 180 179 175
-2.450583e-01 3.803641e-01 -2.834501e+00 178 166 154
7.150731e-01 3.780976e-01 -2.686456e+00 175 172 167
-3.408505e-01 3.787893e-01 -2.836422e+00 93 89 79
6.409610e-01 3.617231e-01 -2.699974e+00 190 188 194
4.882588e-01 3.655268e-01 -2.805521e+00 115 119 85
3.068894e-02 3.433607e-01 -2.806055e+00 172 162 148
-3.836313e-01 3.719258e-01 -2.833223e+00 42 37 42
-4.576790e-01 3.752449e-01 -2.821345e+00 21 27 34
-3.072871e-01 3.618110e-01 -2.833501e+00 67 68 73
-2.729004e-01 3.494928e-01 -2.830986e+00 76 71 77
-2.632813e-01 3.298570e-01 -2.827436e+00 146 137 138
-9.283768e-02 3.084618e-01 -2.780766e+00 151 134 136
-4.657672e-01 3.395563e-01 -2.834657e+00 33 33 35
-2.670715e-01 3.200281e-01 -2.824954e+00 90 80 69
1.316012e-01 2.830862e-01 -2.775219e+00 199 199 201
4.595065e-01 2.832130e-01 -2.758312e+00 248 247 246
-2.717386e-01 2.893952e-01 -2.819272e+00 72 67 63
-4.454982e-01 3.016012e-01 -2.827347e+00 131 118 105
2.292853e-01 2.714521e-01 -2.783266e+00 160 159 138
4.627330e-01 2.778251e-01 -2.761464e+00 253 251 253
-4.767981e-01 2.842038e-01 -2.826029e+00 179 165 162
3.688400e-01 2.599247e-01 -2.789901e+00 146 144 131
-2.286492e-01 2.633518e-01 -2.812212e+00 56 21 32
-2.286492e-01 2.633518e-01 -2.812212e+00 56 21 32
4.575318e-01 2.291510e-01 -2.733754e+00 211 193 194
-3.409900e-01 2.366491e-01 -2.812376e+00 155 146 142
2.746001e-01 2.172305e-01 -2.775784e+00 34 37 14
-4.494584e-01 2.361788e-01 -2.819108e+00 52 63 45
-5.118609e-01 2.400001e-01 -2.817713e+00 146 137 130
-3.897073e-01 2.295360e-01 -2.815162e+00 190 176 167
4.378488e-01 2.175270e-01 -2.773670e+00 115 116 120
3.870728e-01 2.152950e-01 -2.783213e+00 184 193 199
3.871097e-01 2.152904e-01 -2.783164e+00 184 193 199
-7.147624e-02 1.902278e-01 -2.587421e+00 146 141 145
1.694833e-02 1.858242e-01 -2.583629e+00 169 165 163
2.188878e-01 1.966309e-01 -2.724612e+00 23 27 21
3.494523e-03 1.799248e-01 -2.588452e+00 151 150 146
4.495079e-01 1.954736e-01 -2.771482e+00 204 205 193
-5.728913e-01 2.153088e-01 -2.818041e+00 39 38 43
-1.174485e-02 1.710871e-01 -2.585226e+00 167 167 167
-1.178073e+00 2.716646e-01 -2.903079e+00 107 95 81
4.103797e-01 1.859647e-01 -2.779016e+00 70 83 99
-5.620931e-01 1.952380e-01 -2.815670e+00 39 41 47
2.365049e-02 1.553786e-01 -2.583547e+00 140 139 137
4.799158e-01 1.752614e-01 -2.768769e+00 188 182 170
4.620084e-01 1.737871e-01 -2.767898e+00 212 213 198
-9.447216e-01 2.161920e-01 -2.803626e+00 94 94 74
-7.107775e-03 1.513223e-01 -2.581922e+00 131 132 130
-1.075607e+00 2.253963e-01 -2.888498e+00 91 79 78
-8.692619e-01 2.069289e-01 -2.844711e+00 25 27 40
-8.628004e-01 2.008279e-01 -2.842088e+00 32 37 53
4.649496e-03 1.464328e-01 -2.581692e+00 134 134 133
-1.176934e+00 2.252899e-01 -2.896597e+00 70 59 66
-4.273973e-01 1.576012e-01 -2.720636e+00 152 150 149
-5.767860e-01 1.651564e-01 -2.776640e+00 122 134 151
-4.853210e-01 1.421770e-01 -2.711783e+00 37 37 39
-1.654178e-01 1.142494e-01 -2.613616e+00 220 216 216
-4.459360e-01 1.194290e-01 -2.715604e+00 202 201 196
-4.451467e-01 1.193850e-01 -2.714889e+00 202 201 196
-7.344918e-01 1.229742e-01 -2.742530e+00 179 180 172
4.067826e-01 1.028161e-01 -2.757298e+00 216 169 151
4.067826e-01 1.028161e-01 -2.757298e+00 216 169 151
-7.440380e-01 1.139972e-01 -2.742166e+00 160 162 157
4.123076e-02 9.391494e-02 -2.573291e+00 173 172 168
1.305320e-01 5.545915e-02 -2.641873e+00 190 150 150
-3.814361e-01 4.689025e-02 -2.670903e+00 127 128 131
-2.336765e-02 4.891329e-02 -2.530080e+00 130 131 130
-7.503403e-01 2.501185e-02 -2.768416e+00 251 248 245
3.744266e-01 1.161203e-02 -2.749280e+00 146 150 111
-2.065301e-01 9.754746e-03 -2.763657e+00 168 163 153
7.032983e-01 5.421551e-03 -2.760727e+00 212 208 188
4.711008e-01 -1.142315e-02 -2.754830e+00 148 126 114
1.111656e-01 -4.915577e-03 -2.619004e+00 167 151 146
-5.755204e-01 -5.798116e-02 -2.792870e+00 16 17 21
4.754807e-01 -5.034807e-02 -2.750429e+00 159 154 112
6.223949e-01 -6.256752e-02 -2.744123e+00 163 146 129
6.181443e-01 -6.429401e-02 -2.740365e+00 168 152 133
7.308847e-01 -7.109926e-02 -2.661273e+00 191 174 175
7.308847e-01 -7.109926e-02 -2.661273e+00 191 174 175
5.592367e-01 -8.446152e-02 -2.749317e+00 183 165 151
5.543784e-01 -8.954856e-02 -2.738538e+00 155 126 122
6.451278e-01 -8.384340e-02 -2.687119e+00 170 140 136
7.324773e-01 -8.522146e-02 -2.614536e+00 244 249 253
4.440734e-01 -1.021474e-01 -2.742099e+00 37 40 46
4.492780e-01 -1.082099e-01 -2.743586e+00 44 47 29
5.318521e-01 -1.081600e-01 -2.731546e+00 181 158 137
7.629964e-01 -8.751683e-02 -2.566929e+00 181 189 184
4.035322e-01 -1.160420e-01 -2.749932e+00 75 78 90
4.035322e-01 -1.160420e-01 -2.749932e+00 75 78 90
6.850317e-01 -1.181129e-01 -2.658295e+00 155 151 147
2.561830e-01 -1.094846e-01 -2.658171e+00 190 187 180
6.957250e-01 -1.291110e-01 -2.605208e+00 244 253 249
1.574204e-01 -1.140835e-01 -2.618669e+00 191 208 228
6.273147e-01 -1.771864e-01 -2.732034e+00 164 157 151
8.993613e-01 -2.067025e-01 -2.703162e+00 61 60 69
6.386323e-01 -2.064070e-01 -2.735432e+00 155 147 136
-4.924576e-01 -2.215122e-01 -2.766754e+00 172 163 158
8.662366e-02 -1.570228e-01 -2.622684e+00 141 155 164
6.249063e-01 -2.146593e-01 -2.715928e+00 231 237 235
8.713955e-01 -2.783993e-01 -2.716118e+00 201 201 165
9.015047e-01 -2.695450e-01 -2.677938e+00 242 232 230
-1.394227e-01 -2.116476e-01 -2.652650e+00 189 188 186
-1.394227e-01 -2.116476e-01 -2.652650e+00 189 188 186
-1.463133e-01 -2.159370e-01 -2.651009e+00 186 187 189
-1.341671e-01 -2.163247e-01 -2.652477e+00 178 176 174
-1.341671e-01 -2.163247e-01 -2.652477e+00 178 176 174
-4.552190e-01 -2.620536e-01 -2.719093e+00 173 171 154
7.453386e-01 -2.826556e-01 -2.726966e+00 179 169 162
8.806548e-01 -2.959404e-01 -2.703931e+00 140 141 154
-2.880067e-01 -2.664728e-01 -2.733167e+00 40 50 60
8.787738e-01 -3.019278e-01 -2.696418e+00 213 224 226
-1.860079e-01 -2.288217e-01 -2.638626e+00 97 101 99
8.850710e-01 -2.964460e-01 -2.668487e+00 147 153 167
8.824594e-01 -2.972146e-01 -2.662536e+00 220 227 232
7.551574e-01 -3.087655e-01 -2.727305e+00 214 203 207
-4.248069e-01 -2.834302e-01 -2.713431e+00 152 151 149
8.814900e-01 -3.024572e-01 -2.630355e+00 113 91 106
-3.696892e-01 -2.978907e-01 -2.717284e+00 144 144 148
6.009147e-01 -3.043727e-01 -2.704471e+00 190 173 176
6.009607e-01 -3.234578e-01 -2.741545e+00 184 174 162
6.009607e-01 -3.234578e-01 -2.741545e+00 184 174 162
-4.027762e-01 -3.055818e-01 -2.714801e+00 165 160 155
6.891850e-01 -3.275622e-01 -2.714081e+00 203 199 198
9.217643e-01 -3.284414e-01 -2.641453e+00 232 244 236
6.712099e-01 -3.441384e-01 -2.692457e+00 207 201 215
8.985519e-01 -3.535494e-01 -2.638820e+00 171 159 151
6.182317e-01 -3.595590e-01 -2.735730e+00 184 177 165
6.182317e-01 -3.595590e-01 -2.735730e+00 184 177 165
6.986660e-01 -3.252675e-01 -2.632865e+00 193 187 181
6.995374e-01 -3.247593e-01 -2.626269e+00 191 186 186
2.458403e-01 -3.170097e-01 -2.695129e+00 147 157 164
6.711790e-01 -3.434935e-01 -2.657045e+00 145 144 163
-1.399833e-01 -3.016849e-01 -2.645852e+00 72 71 85
1.894590e-01 -3.376513e-01 -2.723069e+00 180 172 171
6.813422e-01 -3.389603e-01 -2.625157e+00 210 205 220
1.992972e-01 -3.460189e-01 -2.703448e+00 170 189 207
-3.276174e-01 -3.288623e-01 -2.633502e+00 42 48 73
-2.704285e-01 -3.329265e-01 -2.640802e+00 145 146 150
-5.364248e-02 -3.629269e-01 -2.721017e+00 25 27 18
-1.543502e-01 -3.190835e-01 -2.625495e+00 16 29 36
6.790597e-01 -3.568645e-01 -2.591956e+00 184 196 208
-1.660376e-01 -3.256602e-01 -2.619471e+00 197 185 195
-1.159361e-01 -3.751571e-01 -2.715718e+00 33 39 29
1.089801e-01 -3.797364e-01 -2.717253e+00 104 103 111
-1.752996e-01 -3.591716e-01 -2.636006e+00 87 93 122
-1.732792e-01 -3.612730e-01 -2.636558e+00 74 93 120
-3.836359e-01 -3.738054e-01 -2.614723e+00 35 37 57
1.878403e-01 -4.005332e-01 -2.705750e+00 221 239 240
-1.746010e-01 -3.684153e-01 -2.633530e+00 23 20 45
6.829758e-01 -4.199237e-01 -2.579441e+00 155 168 186
2.014456e-01 -4.125702e-01 -2.659858e+00 54 51 58
-5.054913e-01 -4.485235e-01 -2.597917e+00 116 135 119
1.458148e-01 -4.362232e-01 -2.664454e+00 20 27 20
4.378955e-01 -4.820429e-01 -2.696866e+00 185 175 173
-3.746201e-01 -4.778013e-01 -2.606972e+00 32 31 52
4.263808e-01 -5.092416e-01 -2.671489e+00 183 179 183
4.849998e-02 -5.051521e-01 -2.699841e+00 40 45 49
-5.769980e-02 -5.052619e-01 -2.691824e+00 41 39 43
-3.084834e-01 -4.688240e-01 -2.599051e+00 41 39 50
-4.565551e-02 -5.128555e-01 -2.698338e+00 15 16 20
4.378561e-01 -5.035866e-01 -2.644621e+00 147 137 136
1.645848e-01 -4.979870e-01 -2.673579e+00 79 66 30
-3.059725e-01 -4.784613e-01 -2.605695e+00 141 142 136
2.173545e-01 -5.022242e-01 -2.673181e+00 23 28 24
4.103948e-01 -5.227302e-01 -2.665759e+00 62 61 90
4.402965e-01 -4.996053e-01 -2.624950e+00 162 139 142
-3.269427e-01 -4.890338e-01 -2.606614e+00 191 192 187
2.304617e-01 -5.104689e-01 -2.674185e+00 108 116 102
-2.770569e-01 -4.782481e-01 -2.599658e+00 203 198 208
3.834489e-02 -5.188140e-01 -2.687200e+00 131 127 124
-2.971572e-01 -4.971260e-01 -2.604665e+00 36 32 63
-2.971572e-01 -4.971260e-01 -2.604665e+00 36 32 63
7.419880e-02 -5.165372e-01 -2.667762e+00 127 128 130
3.513657e-02 -5.233567e-01 -2.676171e+00 172 171 176
-3.196958e-01 -5.043178e-01 -2.598730e+00 50 46 62
3.309429e-02 -5.273605e-01 -2.663972e+00 25 31 28
3.649117e-01 -5.538638e-01 -2.662597e+00 187 174 154
-3.084074e-01 -5.133902e-01 -2.592538e+00 189 188 197
-3.084074e-01 -5.133902e-01 -2.592538e+00 189 188 197
1.711899e-02 -5.510874e-01 -2.669193e+00 134 131 135
-3.817327e-01 -5.306847e-01 -2.579072e+00 172 141 148
1.038160e-01 -5.768532e-01 -2.691400e+00 170 164 162
1.367990e-03 -5.734111e-01 -2.674633e+00 31 31 33
3.316597e-03 -5.758594e-01 -2.673591e+00 189 184 185
1.541855e-01 6.676288e-01 -2.808573e+00 222 196 184
1.398944e-02 6.555057e-01 -2.827556e+00 159 141 137
1.661808e-01 6.484567e-01 -2.820858e+00 233 230 236
1.661808e-01 6.484567e-01 -2.820858e+00 233 230 236
1.545313e-01 6.639178e-01 -2.854273e+00 224 199 172
5.643301e-01 6.469780e-01 -2.729004e+00 181 182 174
1.015221e-01 6.631659e-01 -2.869268e+00 184 179 168
1.652299e-01 6.459355e-01 -2.831862e+00 238 235 243
1.094222e-01 6.502351e-01 -2.848890e+00 193 191 181
1.744134e-01 6.482034e-01 -2.845986e+00 245 240 248
5.010443e-01 6.303149e-01 -2.736749e+00 249 247 252
1.686719e-01 6.373539e-01 -2.840747e+00 76 71 55
5.867373e-01 6.275202e-01 -2.728101e+00 201 207 209
1.385777e-01 6.122298e-01 -2.830102e+00 177 186 191
1.506125e-01 6.087957e-01 -2.830087e+00 163 173 184
1.170970e-01 5.995056e-01 -2.840515e+00 191 185 180
-4.588767e-02 6.033902e-01 -2.865616e+00 170 171 168
-7.459757e-02 5.990218e-01 -2.858590e+00 163 158 166
-7.019217e-02 5.928619e-01 -2.849671e+00 62 65 74
-1.407914e-01 5.777357e-01 -2.855139e+00 37 41 52
-1.538593e-01 5.719937e-01 -2.844850e+00 29 33 45
-1.179165e-01 5.706525e-01 -2.848069e+00 76 80 89
-1.179165e-01 5.706525e-01 -2.848069e+00 76 80 89
-1.002327e-01 5.642630e-01 -2.850950e+00 183 178 178
2.273889e-01 5.453923e-01 -2.830336e+00 176 172 169
1.371560e-02 5.394395e-01 -2.831059e+00 177 166 167
-4.271063e-01 5.363827e-01 -2.721330e+00 219 227 230
-5.095716e-01 5.385417e-01 -2.713342e+00 250 253 237
-4.349404e-01 5.174831e-01 -2.713019e+00 95 90 84
-7.628366e-02 5.238976e-01 -2.842628e+00 50 54 64
2.355129e-01 5.112917e-01 -2.819994e+00 172 165 162
3.145282e-02 4.872415e-01 -2.782542e+00 156 152 151
-4.063728e-01 4.968585e-01 -2.707790e+00 147 133 125
-9.045025e-02 5.030348e-01 -2.834850e+00 47 57 67
-1.569040e-01 5.053100e-01 -2.835285e+00 36 44 55
-7.136356e-02 4.947348e-01 -2.835339e+00 59 69 83
-5.550346e-01 5.015176e-01 -2.708672e+00 94 91 93
-5.550346e-01 5.015176e-01 -2.708672e+00 94 91 93
2.967360e-01 4.585814e-01 -2.789055e+00 236 238 237
-5.569124e-01 4.823568e-01 -2.705413e+00 140 132 114
-5.569124e-01 4.823568e-01 -2.705413e+00 140 132 114
5.521461e-01 4.683046e-01 -2.759184e+00 110 103 100
5.521461e-01 4.683046e-01 -2.759184e+00 110 103 100
-2.863636e-01 4.488113e-01 -2.752290e+00 21 24 16
-5.579180e-01 4.678932e-01 -2.704881e+00 90 80 78
-1.760649e-01 4.454679e-01 -2.806356e+00 145 135 126
5.329555e-01 4.567461e-01 -2.777703e+00 182 171 176
-2.013435e-01 4.425077e-01 -2.810573e+00 162 166 170
-2.201284e-01 4.418997e-01 -2.811908e+00 161 133 143
9.137414e-02 4.148788e-01 -2.771193e+00 174 173 171
-2.270495e-01 4.298146e-01 -2.811015e+00 174 173 189
1.188271e-01 3.947977e-01 -2.765518e+00 169 168 166
-6.184388e-01 4.509180e-01 -2.738253e+00 116 123 129
3.319898e-01 4.081400e-01 -2.795546e+00 224 223 223
5.517193e-02 3.840420e-01 -2.760941e+00 163 163 159
-3.442344e-01 4.173442e-01 -2.838891e+00 28 29 29
-3.074797e-01 4.116838e-01 -2.842419e+00 142 133 116
-3.322931e-01 4.124420e-01 -2.841183e+00 73 67 61
-1.881910e-01 3.900663e-01 -2.802241e+00 174 164 165
-1.881910e-01 3.900663e-01 -2.802241e+00 174 164 165
2.345160e-01 3.851626e-01 -2.810604e+00 153 142 144
2.345160e-01 3.851626e-01 -2.810604e+00 153 142 144
1.093006e-01 3.663080e-01 -2.759915e+00 176 177 172
-2.954026e-01 4.047611e-01 -2.839927e+00 72 68 58
-5.249486e-01 4.002944e-01 -2.724105e+00 61 56 75
-5.249486e-01 4.002944e-01 -2.724105e+00 61 56 75
-5.282004e-01 3.978806e-01 -2.724859e+00 47 54 76
-5.282004e-01 3.978806e-01 -2.724859e+00 47 54 76
3.061638e-01 3.637188e-01 -2.771814e+00 205 214 224
1.134777e-01 3.393080e-01 -2.755220e+00 35 35 35
1.134777e-01 3.393080e-01 -2.755220e+00 35 35 35
6.273062e-01 3.670840e-01 -2.735412e+00 252 253 250
-1.067407e-01 3.378522e-01 -2.783878e+00 173 173 176
-4.830831e-01 3.681458e-01 -2.815639e+00 22 23 29
1.126688e-01 3.123528e-01 -2.750599e+00 173 176 175
4.627065e-01 3.375548e-01 -2.793632e+00 195 185 187
4.486755e-01 3.301874e-01 -2.791715e+00 116 112 104
2.160976e-01 3.124901e-01 -2.789807e+00 125 121 105
-6.049131e-02 3.063293e-01 -2.770308e+00 168 130 141
-4.606005e-01 3.413860e-01 -2.836084e+00 40 36 41
-2.828841e-01 3.226466e-01 -2.826487e+00 156 146 144
2.941679e-01 2.980614e-01 -2.772421e+00 101 127 155
3.550216e-01 2.970510e-01 -2.778007e+00 172 168 161
1.720534e-01 2.762095e-01 -2.781204e+00 100 95 66
-4.361403e-01 2.988847e-01 -2.825663e+00 117 104 88
3.699686e-01 2.644464e-01 -2.790309e+00 188 184 177
-4.653377e-01 2.866881e-01 -2.825953e+00 174 156 152
3.791629e-01 2.504597e-01 -2.786527e+00 185 182 170
2.818825e-01 2.403868e-01 -2.782220e+00 117 121 97
1.911866e-01 2.359149e-01 -2.774129e+00 24 33 32
2.740381e-01 2.323054e-01 -2.777078e+00 32 39 28
2.180060e-01 2.269107e-01 -2.776726e+00 91 98 79
-2.104154e-02 1.959401e-01 -2.588732e+00 136 136 134
-5.272555e-01 2.308602e-01 -2.818201e+00 41 41 42
-5.549267e-01 2.097742e-01 -2.813933e+00 37 42 47
-4.268993e-02 1.649902e-01 -2.583317e+00 153 154 156
-1.179828e+00 2.446712e-01 -2.901259e+00 51 50 46
-6.220663e-01 1.907603e-01 -2.780712e+00 58 58 68
-7.742863e-02 1.538968e-01 -2.580129e+00 139 139 140
-1.232930e+00 2.363715e-01 -2.906184e+00 56 46 58
-5.936293e-01 1.799589e-01 -2.780966e+00 43 50 68
-8.625082e-01 1.895844e-01 -2.840383e+00 163 175 179
-5.714843e-02 1.401122e-01 -2.578399e+00 134 133 133
-4.226478e-01 1.542378e-01 -2.719075e+00 150 146 147
-2.739732e-01 1.475962e-01 -2.793564e+00 44 43 48
-5.835679e-01 1.612206e-01 -2.773954e+00 57 69 90
-1.139723e+00 1.989291e-01 -2.888444e+00 73 72 67
-8.662984e-01 1.647865e-01 -2.837716e+00 124 116 94
-4.698597e-03 1.241709e-01 -2.575958e+00 136 136 138
5.108602e-01 1.324058e-01 -2.743902e+00 151 105 100
-8.703540e-01 1.605002e-01 -2.832897e+00 189 193 204
-4.513534e-01 1.268417e-01 -2.717844e+00 195 193 195
-4.240080e-01 1.175905e-01 -2.714173e+00 152 147 146
-2.863310e-02 1.026356e-01 -2.573348e+00 133 133 133
-3.425262e-01 9.087548e-02 -2.673821e+00 145 144 149
-7.488857e-01 1.020758e-01 -2.738978e+00 74 71 81
-3.477971e-01 8.540387e-02 -2.673207e+00 133 134 138
-7.807386e-01 9.344405e-02 -2.744240e+00 167 159 178
7.399605e-01 6.725840e-02 -2.719244e+00 203 201 206
7.518596e-01 5.643913e-02 -2.718211e+00 135 133 138
-2.650652e-01 4.650623e-02 -2.767485e+00 85 85 96
-4.785808e-02 5.866493e-02 -2.530889e+00 125 125 123
-4.493795e-02 4.758826e-02 -2.511850e+00 99 113 121
5.208877e-01 2.768180e-02 -2.735637e+00 64 55 23
-5.433457e-02 4.677945e-02 -2.511118e+00 61 69 80
-5.356278e-02 4.391155e-02 -2.510586e+00 65 71 86
-2.999390e-02 4.126564e-02 -2.510489e+00 161 168 175
4.739407e-01 1.088286e-02 -2.753956e+00 156 144 124
7.454352e-01 1.921607e-02 -2.644208e+00 248 248 246
3.287540e-01 6.131887e-03 -2.710636e+00 18 21 8
-2.325347e-01 -4.965941e-04 -2.762645e+00 189 186 179
7.019387e-01 -8.907866e-04 -2.750898e+00 236 241 223
7.205475e-01 5.295948e-03 -2.679252e+00 252 251 248
1.186364e-01 9.456618e-03 -2.630044e+00 166 126 116
1.078386e-01 9.068485e-04 -2.619649e+00 91 81 79
2.892794e-01 -2.449768e-02 -2.754083e+00 26 29 36
-3.826997e-01 -4.532140e-02 -2.728627e+00 156 161 170
-3.521259e-01 -5.349896e-02 -2.724552e+00 164 169 172
-2.177950e-01 -6.162443e-02 -2.755308e+00 186 183 178
5.505489e-01 -7.177385e-02 -2.753410e+00 152 147 137
6.747920e-01 -6.779314e-02 -2.686029e+00 178 149 145
7.426524e-01 -7.404585e-02 -2.618671e+00 247 250 250
6.000747e-01 -9.799929e-02 -2.746453e+00 94 85 79
6.178742e-01 -1.124745e-01 -2.746546e+00 88 79 83
6.060811e-01 -1.153745e-01 -2.746270e+00 159 149 139
5.984046e-01 -1.152202e-01 -2.745444e+00 158 153 124
-6.252143e-01 -1.353557e-01 -2.789790e+00 34 33 30
-5.852042e-02 -1.053923e-01 -2.710745e+00 166 165 162
-3.650870e-01 -1.257654e-01 -2.744497e+00 47 51 60
6.455162e-01 -1.404532e-01 -2.748022e+00 180 174 148
-2.076449e-01 -1.341424e-01 -2.749753e+00 182 178 169
-4.122338e-01 -1.496008e-01 -2.759227e+00 161 136 116
6.396427e-01 -1.557566e-01 -2.736404e+00 225 222 213
6.976352e-01 -1.267217e-01 -2.606033e+00 235 246 248
-8.274900e-02 -1.433172e-01 -2.706449e+00 171 176 179
9.933528e-01 -1.960011e-01 -2.728261e+00 196 187 175
9.933528e-01 -1.960011e-01 -2.728261e+00 196 187 175
2.553096e-01 -1.387658e-01 -2.655445e+00 192 186 186
-3.970773e-01 -1.855787e-01 -2.730924e+00 27 30 36
-1.000086e-01 -1.719835e-01 -2.702516e+00 41 49 59
6.098240e-01 -2.090620e-01 -2.732328e+00 54 58 59
-5.157758e-01 -2.215161e-01 -2.762412e+00 79 79 84
-4.944444e-01 -2.240291e-01 -2.764421e+00 57 50 55
1.195265e-01 -1.546476e-01 -2.590255e+00 105 111 122
-2.959353e-01 -2.155667e-01 -2.738316e+00 185 181 180
-2.907848e-01 -2.192608e-01 -2.740130e+00 178 174 171
-3.427421e-01 -2.200424e-01 -2.725456e+00 152 149 156
2.289466e-01 -1.862244e-01 -2.646495e+00 155 151 140
-4.423948e-01 -2.463392e-01 -2.723062e+00 170 175 156
9.059873e-01 -2.570447e-01 -2.644839e+00 231 232 221
-2.963739e-01 -2.451697e-01 -2.730982e+00 205 203 211
-4.489296e-01 -2.597731e-01 -2.720506e+00 157 153 152
3.123325e-01 -2.480872e-01 -2.731141e+00 91 89 86
8.908661e-01 -2.867756e-01 -2.675996e+00 252 252 251
-2.688128e-01 -2.769422e-01 -2.700877e+00 183 177 180
8.777498e-01 -3.019802e-01 -2.632415e+00 232 233 226
8.777498e-01 -3.019802e-01 -2.632415e+00 232 233 226
9.039674e-01 -3.304823e-01 -2.647191e+00 81 88 94
-4.119480e-01 -3.166375e-01 -2.717774e+00 122 118 117
7.141015e-01 -3.203875e-01 -2.669773e+00 209 208 211
5.016920e-01 -3.317916e-01 -2.726243e+00 158 160 155
5.016920e-01 -3.317916e-01 -2.726243e+00 158 160 155
6.758379e-01 -3.435396e-01 -2.671333e+00 195 191 185
-2.128889e-01 -2.841505e-01 -2.620033e+00 80 33 53
8.952701e-01 -3.558496e-01 -2.617819e+00 145 158 193
6.620076e-01 -3.453984e-01 -2.664312e+00 200 193 185
4.833906e-02 -2.972163e-01 -2.654897e+00 151 147 144
6.704942e-01 -3.410204e-01 -2.625723e+00 201 196 196
-2.972268e-01 -3.428428e-01 -2.640050e+00 146 147 151
-1.616322e-01 -3.295589e-01 -2.627588e+00 77 39 74
-2.015550e-01 -3.397231e-01 -2.637847e+00 145 158 149
-1.661086e-01 -3.282485e-01 -2.617905e+00 66 54 73
-1.584897e-01 -3.307042e-01 -2.616268e+00 59 86 123
6.574824e-01 -4.537992e-01 -2.723605e+00 181 178 169
-2.967005e-01 -3.722794e-01 -2.623514e+00 33 36 41
-1.781203e-01 -3.676317e-01 -2.633227e+00 37 36 67
-4.015887e-01 -3.970112e-01 -2.611121e+00 37 44 71
4.948629e-01 -4.837144e-01 -2.732931e+00 166 164 145
2.041801e-01 -4.129382e-01 -2.658662e+00 172 181 182
-3.511033e-01 -4.172433e-01 -2.613255e+00 179 175 176
-3.537098e-01 -4.531204e-01 -2.615707e+00 148 146 147
-4.922635e-01 -4.893152e-01 -2.599419e+00 203 201 204
4.314817e-01 -5.088609e-01 -2.668804e+00 206 202 194
1.603541e-01 -4.879542e-01 -2.672004e+00 32 35 19
5.052538e-02 -5.013536e-01 -2.688097e+00 18 23 29
-8.385031e-02 -4.712566e-01 -2.627227e+00 49 44 48
1.712302e-01 -5.016153e-01 -2.672065e+00 43 38 22
2.198802e-01 -5.055330e-01 -2.673582e+00 104 114 86
2.198802e-01 -5.055330e-01 -2.673582e+00 104 114 86
-3.085661e-01 -4.862492e-01 -2.607649e+00 192 192 195
2.875810e-02 -5.281099e-01 -2.692980e+00 178 180 160
3.856982e-02 -5.209457e-01 -2.683296e+00 163 164 167
-3.380820e-01 -4.980054e-01 -2.601889e+00 145 150 160
7.284058e-01 -6.597768e-01 -2.762466e+00 148 149 151
4.451183e-01 -5.033636e-01 -2.608857e+00 93 83 85
4.451183e-01 -5.033636e-01 -2.608857e+00 93 83 85
5.265922e-01 -5.331990e-01 -2.616788e+00 23 35 34
2.882247e-01 -5.740339e-01 -2.695566e+00 115 123 95
3.591783e-01 -5.575346e-01 -2.662643e+00 165 151 137
4.196779e-01 -5.265194e-01 -2.607770e+00 40 45 58
-3.241629e-01 -5.177703e-01 -2.584052e+00 182 194 197
1.186687e-02 -5.552047e-01 -2.677010e+00 159 156 146
-3.191128e-01 -5.841332e-01 -2.665269e+00 82 80 81
1.550883e-01 -5.782588e-01 -2.694021e+00 176 150 145
1.093541e-01 -5.876358e-01 -2.690926e+00 158 158 161
-2.857806e-02 6.697163e-01 -2.821027e+00 210 186 180
3.187315e-01 6.209928e-01 -2.712804e+00 101 85 93
2.486123e-02 6.680947e-01 -2.843073e+00 51 50 55
2.754367e-01 6.719880e-01 -2.840294e+00 45 47 45
-2.856695e-01 6.257197e-01 -2.730948e+00 27 40 49
2.642572e-01 6.594714e-01 -2.842345e+00 53 53 61
3.044432e-01 6.661076e-01 -2.867427e+00 149 150 110
3.017165e-01 6.503177e-01 -2.837689e+00 47 47 47
2.774127e-01 6.401046e-01 -2.831975e+00 200 54 93
1.153341e-01 6.028904e-01 -2.824188e+00 189 139 148
1.097192e-01 6.067116e-01 -2.841850e+00 168 160 152
6.391983e-01 6.019544e-01 -2.702837e+00 248 245 242
-6.625845e-02 6.105536e-01 -2.866576e+00 58 64 67
-4.816943e-02 6.089790e-01 -2.865788e+00 86 85 94
-3.814426e-01 5.669189e-01 -2.722967e+00 64 95 98
5.497935e-01 5.677334e-01 -2.726403e+00 225 217 212
2.368461e-01 5.688502e-01 -2.840948e+00 165 164 166
2.777750e-01 5.417682e-01 -2.781857e+00 90 91 100
2.165198e-03 5.529743e-01 -2.835819e+00 171 168 156
1.867788e-01 5.544375e-01 -2.839514e+00 67 68 73
-8.406791e-02 5.542532e-01 -2.831770e+00 32 44 61
2.652503e-01 5.291254e-01 -2.780437e+00 123 123 131
-9.789790e-02 5.561980e-01 -2.848678e+00 47 55 60
2.242895e-01 5.455094e-01 -2.837056e+00 162 160 155
-1.050260e-01 5.435957e-01 -2.838676e+00 53 61 74
2.742478e-01 5.159608e-01 -2.775983e+00 205 200 197
-1.829834e-01 5.497364e-01 -2.850884e+00 33 38 42
-5.198185e-01 5.405353e-01 -2.715742e+00 136 135 142
-5.198185e-01 5.405353e-01 -2.715742e+00 136 135 142
-3.854042e-01 5.222508e-01 -2.823385e+00 14 17 26
-5.282590e-01 5.043226e-01 -2.707786e+00 37 28 40
-5.282590e-01 5.043226e-01 -2.707786e+00 37 28 40
-5.242882e-01 4.975499e-01 -2.705431e+00 85 79 73
-3.799294e-01 5.133854e-01 -2.826055e+00 23 26 35
-4.094210e-01 5.165927e-01 -2.828618e+00 28 31 36
-4.103983e-01 5.173284e-01 -2.830845e+00 28 31 36
-9.981181e-02 4.864220e-01 -2.833614e+00 151 148 157
1.830374e-01 4.689962e-01 -2.806224e+00 193 178 159
1.830374e-01 4.689962e-01 -2.806224e+00 193 178 159
-3.798655e-01 4.990079e-01 -2.825546e+00 14 18 27
7.141766e-01 4.870701e-01 -2.706472e+00 142 123 118
5.271051e-01 4.808109e-01 -2.794589e+00 64 68 79
-3.105497e-01 4.423129e-01 -2.757448e+00 21 24 17
1.642893e-01 4.255503e-01 -2.777903e+00 168 164 161
2.439906e-01 4.391907e-01 -2.824997e+00 59 52 42
-2.088297e-02 4.339986e-01 -2.822377e+00 143 133 123
2.584698e-01 4.252182e-01 -2.821098e+00 154 156 150
1.616339e-01 3.968525e-01 -2.768004e+00 181 180 175
4.739730e-01 4.219446e-01 -2.779837e+00 23 23 31
1.573915e-01 3.957774e-01 -2.768738e+00 151 148 143
-5.097323e-01 4.182499e-01 -2.730014e+00 51 53 74
4.473369e-01 3.990166e-01 -2.765376e+00 30 32 35
-6.009163e-01 4.305231e-01 -2.732738e+00 192 198 193
1.872103e-01 3.790337e-01 -2.768063e+00 120 118 126
-2.100669e-01 3.972009e-01 -2.803658e+00 163 174 178
4.959310e-01 4.078269e-01 -2.799226e+00 132 125 106
-5.189743e-01 4.065054e-01 -2.724766e+00 68 72 85
4.762886e-01 3.915694e-01 -2.793175e+00 175 171 174
-3.701354e-03 3.665411e-01 -2.807106e+00 54 59 70
2.997809e-01 3.521442e-01 -2.764904e+00 203 213 215
-3.114166e-01 3.799622e-01 -2.835453e+00 41 42 47
4.774371e-01 3.716554e-01 -2.801500e+00 41 53 40
3.398943e-02 3.428706e-01 -2.806224e+00 144 130 114
-4.560040e-01 3.732015e-01 -2.831488e+00 15 20 23
9.023573e-02 3.236855e-01 -2.751031e+00 159 161 166
-4.551278e-01 3.493425e-01 -2.835251e+00 34 30 31
-3.076948e-02 3.092362e-01 -2.794177e+00 55 71 68
-2.869373e-01 3.212933e-01 -2.822826e+00 70 65 65
4.347295e-01 3.036817e-01 -2.789905e+00 190 181 167
-3.330705e-01 3.077480e-01 -2.823718e+00 59 49 58
-2.673095e-01 2.952306e-01 -2.821753e+00 172 156 156
2.648727e-01 2.796636e-01 -2.780408e+00 185 179 173
-4.904359e-01 3.107417e-01 -2.832200e+00 29 28 33
1.969881e-01 2.398279e-01 -2.772113e+00 40 46 40
-4.168464e-01 2.587944e-01 -2.820192e+00 187 171 158
-1.124518e-01 2.057203e-01 -2.573023e+00 147 150 150
-2.977192e-01 2.411846e-01 -2.811370e+00 52 51 52
-2.977192e-01 2.411846e-01 -2.811370e+00 52 51 52
-7.393376e-02 1.915187e-01 -2.588195e+00 151 151 153
-4.732994e-01 2.318841e-01 -2.813329e+00 75 78 71
-6.887754e-02 1.895998e-01 -2.587739e+00 158 156 159
-4.213960e-01 2.204663e-01 -2.813863e+00 36 31 37
-1.095421e+00 2.835054e-01 -2.897363e+00 67 66 62
-1.181796e+00 2.826595e-01 -2.905902e+00 139 123 98
-5.759129e-01 2.203426e-01 -2.818042e+00 24 25 29
-1.285000e-01 1.746244e-01 -2.580775e+00 126 133 143
-1.280950e-01 1.745521e-01 -2.580256e+00 126 133 143
-8.921903e-01 2.435517e-01 -2.809644e+00 57 61 57
4.661701e-01 1.954922e-01 -2.769832e+00 129 121 104
-4.072672e-01 2.015153e-01 -2.806917e+00 46 45 45
-7.743569e-02 1.706794e-01 -2.582913e+00 147 149 151
-9.312416e-01 2.262744e-01 -2.802074e+00 48 49 36
-8.273351e-02 1.592192e-01 -2.581230e+00 138 136 139
-1.105018e+00 2.398676e-01 -2.893081e+00 89 80 66
4.520327e-01 1.735728e-01 -2.764784e+00 79 80 81
3.946899e-01 1.631728e-01 -2.773425e+00 51 53 49
-5.782288e-01 1.781697e-01 -2.780490e+00 20 24 31
-6.136951e-01 1.792164e-01 -2.776896e+00 39 44 56
-4.406811e-01 1.659468e-01 -2.723739e+00 164 160 158
-8.620367e-01 1.896217e-01 -2.839917e+00 164 177 181
-4.283335e-02 1.368121e-01 -2.577911e+00 167 168 171
-8.607322e-01 1.803229e-01 -2.845185e+00 52 53 75
-4.033606e-01 1.425171e-01 -2.722449e+00 154 150 147
-6.498813e-02 1.185512e-01 -2.573675e+00 160 163 164
-6.034866e-01 1.314627e-01 -2.805942e+00 124 118 107
3.200416e-01 1.066978e-01 -2.761780e+00 138 139 100
-4.266828e-01 1.116258e-01 -2.713403e+00 155 151 149
4.573980e-02 1.029097e-01 -2.574787e+00 171 170 166
-7.044283e-01 1.136181e-01 -2.749452e+00 93 92 97
4.818329e-01 9.624578e-02 -2.772237e+00 96 97 94
-1.035287e+00 1.124111e-01 -2.844233e+00 36 33 37
-7.856615e-01 1.012397e-01 -2.748502e+00 145 135 150
-3.870533e-01 8.975927e-02 -2.665204e+00 178 178 177
-3.897255e-01 8.707849e-02 -2.664304e+00 187 185 180
7.460774e-01 5.823403e-02 -2.719865e+00 195 192 194
-7.160680e-01 6.036644e-02 -2.747396e+00 41 41 45
-2.306093e-01 2.683639e-02 -2.767491e+00 171 169 160
3.125968e-02 3.573770e-02 -2.599100e+00 52 69 99
-4.567814e-01 2.292779e-02 -2.692411e+00 49 37 54
4.786509e-01 2.848632e-03 -2.750606e+00 100 98 73
7.479017e-01 1.263215e-02 -2.643845e+00 242 244 235
7.479017e-01 1.263215e-02 -2.643845e+00 242 244 235
7.003431e-01 -3.461632e-03 -2.743278e+00 67 72 74
6.907332e-01 -1.446235e-02 -2.722355e+00 217 226 212
6.900243e-01 -1.436194e-02 -2.713358e+00 181 168 162
5.182131e-01 -1.731869e-02 -2.727745e+00 189 163 150
-4.211703e-01 -2.441040e-02 -2.688909e+00 36 20 28
6.536284e-01 -4.805768e-02 -2.707084e+00 157 137 130
8.138262e-01 -5.316167e-02 -2.650291e+00 249 251 249
4.338781e-01 -7.261959e-02 -2.755638e+00 118 113 114
7.269303e-01 -7.616796e-02 -2.659197e+00 153 155 166
6.028626e-01 -1.128481e-01 -2.747620e+00 64 59 56
-6.186627e-01 -1.433397e-01 -2.787538e+00 133 123 109
6.420178e-01 -1.439105e-01 -2.740604e+00 220 218 191
1.136921e-01 -1.046292e-01 -2.626356e+00 148 149 155
3.693691e-01 -1.439325e-01 -2.743437e+00 150 157 153
6.621026e-01 -1.455514e-01 -2.690547e+00 142 112 129
6.880554e-01 -1.336445e-01 -2.624323e+00 195 189 187
1.549189e-01 -1.120940e-01 -2.618093e+00 26 42 56
1.309256e-01 -1.405042e-01 -2.620816e+00 150 151 153
6.150693e-01 -2.215457e-01 -2.728928e+00 174 167 152
6.866686e-01 -1.940215e-01 -2.604916e+00 201 201 210
9.210260e-01 -2.412351e-01 -2.684298e+00 77 72 89
9.178451e-01 -3.057972e-01 -2.639170e+00 91 96 96
-1.990291e-01 -2.560548e-01 -2.646203e+00 170 167 169
5.772724e-02 -2.791861e-01 -2.656927e+00 191 186 183
9.040775e-01 -3.502900e-01 -2.627668e+00 247 249 254
-1.184870e-01 -3.000432e-01 -2.668537e+00 63 66 73
-1.279993e-01 -3.098075e-01 -2.636874e+00 84 80 103
-1.792574e-01 -3.157674e-01 -2.620559e+00 132 52 103
-7.513989e-02 -3.594485e-01 -2.714666e+00 100 104 71
3.288120e-01 -3.220766e-01 -2.629104e+00 32 40 49
-1.682743e-01 -3.254390e-01 -2.617872e+00 88 73 108
-1.682743e-01 -3.254390e-01 -2.617872e+00 88 73 108
-3.963432e-01 -3.514869e-01 -2.615003e+00 60 68 71
-4.042808e-01 -3.907436e-01 -2.614396e+00 45 66 46
-4.311684e-01 -3.938210e-01 -2.608082e+00 183 182 169
-1.125471e-01 -4.412114e-01 -2.686312e+00 41 36 40
2.286550e-01 -4.284455e-01 -2.666782e+00 86 71 79
2.324811e-01 -4.290814e-01 -2.661819e+00 113 132 142
1.356773e-01 -4.376524e-01 -2.660934e+00 95 103 80
-5.873281e-05 -4.684999e-01 -2.705960e+00 19 22 29
2.277627e-01 -4.330048e-01 -2.641852e+00 174 187 194
-9.629702e-02 -4.615388e-01 -2.663746e+00 46 44 47
-5.997049e-02 -4.973100e-01 -2.697659e+00 18 19 24
-2.664441e-01 -4.654107e-01 -2.611198e+00 64 65 70
-4.651409e-01 -4.875625e-01 -2.588910e+00 36 35 44
5.155288e-01 -5.199827e-01 -2.615350e+00 36 36 62
1.368989e-01 -5.448591e-01 -2.701841e+00 175 170 162
-1.010247e-01 -4.567373e-01 -2.568910e+00 66 60 67
4.828432e-02 -5.347631e-01 -2.661057e+00 140 140 140
4.828432e-02 -5.347631e-01 -2.661057e+00 140 140 140
3.671593e-01 -5.531320e-01 -2.653145e+00 188 164 165
4.744983e-02 -5.517856e-01 -2.664870e+00 111 115 117
3.526590e-01 -5.732881e-01 -2.665666e+00 176 171 158
8.842062e-02 -5.816881e-01 -2.688309e+00 152 149 144
5.476922e-02 -5.610599e-01 -2.660999e+00 164 163 161
1.277911e-01 -5.892991e-01 -2.690283e+00 226 231 211
6.135878e-01 6.782628e-01 -2.751324e+00 178 179 170
1.616929e-01 6.497641e-01 -2.827120e+00 149 148 156
1.898976e-01 6.421305e-01 -2.812476e+00 140 110 102
1.583059e-01 6.599373e-01 -2.855644e+00 250 245 245
1.695111e-01 6.460750e-01 -2.827853e+00 134 130 143
1.533638e-01 6.450329e-01 -2.836890e+00 89 74 52
2.517698e-01 6.489356e-01 -2.863743e+00 184 175 173
1.680168e-01 6.281976e-01 -2.835769e+00 185 177 163
6.426186e-01 6.245455e-01 -2.705216e+00 87 87 116
1.579483e-01 6.165998e-01 -2.833195e+00 171 180 186
3.054874e-01 6.220068e-01 -2.846421e+00 242 236 219
2.181060e-01 6.206892e-01 -2.858333e+00 90 86 89
-9.410780e-02 6.141658e-01 -2.866829e+00 41 45 56
2.671387e-01 6.001980e-01 -2.834114e+00 197 45 91
-8.651244e-02 6.039772e-01 -2.857986e+00 55 60 67
-7.206296e-02 5.845781e-01 -2.849897e+00 83 87 96
5.416745e-01 5.760542e-01 -2.747891e+00 180 178 184
1.626294e-02 5.427231e-01 -2.824155e+00 49 41 41
-4.239850e-01 5.403169e-01 -2.716970e+00 68 107 112
4.305935e-03 5.450628e-01 -2.841353e+00 170 169 165
9.427172e-03 5.355310e-01 -2.826493e+00 43 34 37
2.541676e-01 5.158147e-01 -2.770455e+00 135 133 142
5.980789e-01 5.191202e-01 -2.722722e+00 96 86 85
6.161392e-01 5.129784e-01 -2.714817e+00 239 232 229
6.024335e-01 5.115287e-01 -2.730107e+00 195 216 222
-3.587114e-01 5.263440e-01 -2.827607e+00 50 62 82
-5.535005e-01 5.132489e-01 -2.711008e+00 36 30 34
-4.123971e-01 5.239643e-01 -2.831736e+00 17 18 23
-4.355831e-01 4.765076e-01 -2.698602e+00 94 84 83
-2.064933e-01 4.695344e-01 -2.772147e+00 134 137 128
-2.064933e-01 4.695344e-01 -2.772147e+00 134 137 128
-3.781215e-01 5.071444e-01 -2.830425e+00 14 19 25
-3.825633e-02 4.661690e-01 -2.821864e+00 176 166 154
1.521817e-01 4.485949e-01 -2.777203e+00 142 141 139
-1.760537e-01 4.516529e-01 -2.805326e+00 177 179 188
1.065831e-01 4.277250e-01 -2.773721e+00 150 149 145
7.077469e-02 4.217890e-01 -2.766981e+00 127 122 119
4.392446e-01 4.085880e-01 -2.769681e+00 180 170 172
-6.246958e-01 4.459395e-01 -2.737080e+00 57 41 65
-5.735800e-01 4.304252e-01 -2.731142e+00 181 171 160
-5.308159e-01 4.014569e-01 -2.722800e+00 183 181 170
7.175282e-01 3.968437e-01 -2.684183e+00 252 254 253
-3.291292e-01 3.888713e-01 -2.837341e+00 24 23 28
-9.316541e-02 3.520675e-01 -2.781419e+00 186 180 175
4.722124e-01 3.706624e-01 -2.801670e+00 45 48 48
-3.119282e-01 3.750676e-01 -2.836748e+00 95 94 95
-4.485390e-01 3.772808e-01 -2.826853e+00 15 20 23
-1.498042e-01 3.323862e-01 -2.790117e+00 166 173 179
1.011050e-01 3.160050e-01 -2.749251e+00 159 162 167
-4.374111e-01 3.618832e-01 -2.836597e+00 163 152 138
-4.760539e-01 3.602509e-01 -2.811636e+00 19 24 24
-1.160938e-01 3.157171e-01 -2.784528e+00 157 168 175
-3.143143e-01 3.005023e-01 -2.821753e+00 51 46 43
-2.535168e-01 2.942829e-01 -2.818380e+00 58 145 208
7.895790e-02 2.780872e-01 -2.792650e+00 123 110 91
-2.472738e-01 2.840308e-01 -2.806500e+00 26 44 79
1.830280e-01 2.681397e-01 -2.777251e+00 80 91 57
-7.611442e-02 2.342362e-01 -2.594965e+00 164 160 156
3.792984e-01 2.631827e-01 -2.776707e+00 156 155 152
1.590421e-01 2.478723e-01 -2.772780e+00 27 28 32
-4.599464e-01 2.718021e-01 -2.822297e+00 179 163 148
-4.599464e-01 2.718021e-01 -2.822297e+00 179 163 148
3.871763e-01 2.472167e-01 -2.782905e+00 49 50 56
-3.025779e-01 2.439609e-01 -2.811591e+00 163 150 133
-4.450048e-01 2.413215e-01 -2.815881e+00 176 166 155
-3.490185e-01 2.303675e-01 -2.811971e+00 26 25 23
-5.091152e-01 2.405265e-01 -2.819020e+00 147 139 127
-8.433960e-01 2.703030e-01 -2.826722e+00 102 101 103
-4.935088e-01 2.336531e-01 -2.817791e+00 136 131 112
-8.745812e-02 1.891285e-01 -2.585853e+00 149 150 146
-1.740294e-02 1.870874e-01 -2.588535e+00 144 144 144
-9.220520e-01 2.528861e-01 -2.800249e+00 37 39 34
-4.108454e-01 2.057995e-01 -2.809047e+00 175 167 158
-1.110641e+00 2.670836e-01 -2.899502e+00 66 61 53
-5.724324e-01 2.045273e-01 -2.814074e+00 33 35 43
4.193217e-01 1.690258e-01 -2.776359e+00 209 205 202
4.190322e-01 1.690306e-01 -2.775695e+00 209 205 202
-1.088129e+00 2.250815e-01 -2.891555e+00 145 137 110
6.097470e-01 1.714719e-01 -2.754219e+00 214 208 177
-8.937422e-01 2.041114e-01 -2.832359e+00 14 25 31
-1.229671e+00 2.172472e-01 -2.901670e+00 32 30 40
-8.607985e-01 1.888053e-01 -2.848364e+00 42 41 50
-3.072236e-02 1.395081e-01 -2.580961e+00 130 130 132
3.778260e-01 1.372226e-01 -2.765563e+00 122 120 112
3.298605e-02 1.211590e-01 -2.577607e+00 141 143 142
-2.879406e-02 1.170031e-01 -2.572480e+00 131 131 133
-3.312791e-01 1.234342e-01 -2.674413e+00 128 128 130
-4.566126e-01 1.135345e-01 -2.721293e+00 154 152 155
-3.563940e-01 1.003114e-01 -2.672071e+00 111 112 117
2.235371e-01 9.271428e-02 -2.715265e+00 90 96 62
-6.594669e-01 1.067223e-01 -2.754939e+00 34 25 23
-1.037079e+00 1.066042e-01 -2.841346e+00 71 69 72
-3.814107e-01 8.815089e-02 -2.662456e+00 113 113 117
-4.121097e-01 7.573341e-02 -2.668191e+00 148 146 150
-3.952516e-01 7.401327e-02 -2.663951e+00 112 112 114
3.444845e-01 5.038788e-02 -2.754019e+00 145 143 104
-9.464368e-01 6.295153e-02 -2.760120e+00 59 64 68
-2.854382e-01 4.838431e-02 -2.769508e+00 155 152 151
-8.081220e-01 5.870292e-02 -2.734031e+00 19 20 32
3.565028e-01 4.125149e-02 -2.753489e+00 152 150 110
2.891276e-01 3.921572e-02 -2.708663e+00 118 125 89
-3.979392e-01 4.439485e-02 -2.665907e+00 167 167 169
4.737749e-01 -1.048539e-02 -2.752814e+00 171 158 149
1.431607e-02 -1.507846e-02 -2.590035e+00 166 165 170
1.431607e-02 -1.507846e-02 -2.590035e+00 166 165 170
-5.831880e-01 -5.444615e-02 -2.790924e+00 13 14 19
4.582616e-01 -5.798325e-02 -2.747949e+00 177 163 164
6.197921e-01 -6.874378e-02 -2.727374e+00 117 124 141
6.749699e-01 -6.310175e-02 -2.689419e+00 178 149 137
-3.326595e-01 -7.373019e-02 -2.756537e+00 191 190 193
-4.303037e-01 -8.170370e-02 -2.722373e+00 144 157 136
7.267725e-01 -7.619917e-02 -2.659556e+00 152 153 168
7.214408e-01 -8.265199e-02 -2.658402e+00 142 145 162
-2.633009e-01 -1.070021e-01 -2.748961e+00 186 185 183
7.006167e-01 -1.079544e-01 -2.641041e+00 122 112 131
1.122950e-01 -8.841496e-02 -2.634319e+00 32 26 30
1.291311e-01 -1.066675e-01 -2.627463e+00 51 66 71
3.788364e-01 -1.449842e-01 -2.742544e+00 148 148 148
6.534454e-01 -1.602145e-01 -2.678803e+00 118 124 137
