ply
format ascii 1.0
element face 0
property list uchar int vertex_indices
element vertex 928
property float x
property float y
property float z
property uchar diffuse_red
property uchar diffuse_green
property uchar diffuse_blue
end_header
1.100826e-01 6.230367e-01 -2.846083e+00 222 209 230
3.056966e-01 6.288293e-01 -2.872406e+00 91 82 46
-2.886605e-02 6.205285e-01 -2.874287e+00 175 167 157
7.998892e-02 6.108586e-01 -2.861672e+00 191 182 172
1.969484e-01 6.107217e-01 -2.860760e+00 165 165 180
1.969484e-01 6.107217e-01 -2.860760e+00 165 165 180
-8.955581e-02 6.121333e-01 -2.869354e+00 65 70 76
3.063585e-01 6.126373e-01 -2.866182e+00 130 122 103
2.191554e-01 6.068692e-01 -2.857277e+00 88 84 85
-3.977376e-02 6.047259e-01 -2.869518e+00 174 170 164
-7.107135e-02 6.050941e-01 -2.868726e+00 133 134 146
3.015966e-01 6.059702e-01 -2.863033e+00 101 92 71
-8.459961e-02 5.984297e-01 -2.866434e+00 48 53 59
-1.513429e-01 5.883945e-01 -2.863335e+00 74 78 90
-1.481713e-01 5.795351e-01 -2.860176e+00 66 70 81
-2.106228e-01 5.763400e-01 -2.859548e+00 158 156 161
6.071066e-02 5.493254e-01 -2.801752e+00 162 158 155
-1.951635e-01 5.588999e-01 -2.854511e+00 137 140 149
7.072847e-02 5.463514e-01 -2.802138e+00 175 173 169
5.815241e-02 5.435676e-01 -2.797600e+00 131 126 123
2.570821e-01 5.480493e-01 -2.844010e+00 186 180 176
2.834521e-01 5.451967e-01 -2.797828e+00 188 185 173
1.906978e-01 5.324048e-01 -2.833245e+00 73 76 85
1.951466e-01 5.223696e-01 -2.832135e+00 74 86 88
1.988354e-01 5.195236e-01 -2.830162e+00 124 133 140
-1.226007e-01 5.188316e-01 -2.841086e+00 123 125 138
1.790667e-02 5.138491e-01 -2.829182e+00 80 71 68
-8.581155e-02 4.969383e-01 -2.834316e+00 49 55 68
2.897237e-01 4.965752e-01 -2.781369e+00 160 156 148
-7.858256e-02 4.945807e-01 -2.835089e+00 132 129 143
1.129745e-01 4.857969e-01 -2.785199e+00 187 183 180
9.578255e-02 4.844052e-01 -2.785825e+00 170 168 173
2.225243e-02 4.802015e-01 -2.780271e+00 147 143 144
1.750180e-02 4.734551e-01 -2.776883e+00 163 157 157
6.166196e-02 4.645993e-01 -2.777445e+00 159 156 152
9.644599e-02 4.606715e-01 -2.778416e+00 145 141 138
7.911710e-02 4.449239e-01 -2.772780e+00 120 115 111
-2.047995e-01 4.354263e-01 -2.809082e+00 190 194 196
-2.047995e-01 4.354263e-01 -2.809082e+00 190 194 196
-2.448980e-01 4.342628e-01 -2.815042e+00 50 56 72
5.397039e-02 4.300458e-01 -2.767734e+00 191 190 185
-2.480783e-01 4.291398e-01 -2.814637e+00 51 55 67
5.380747e-02 4.199984e-01 -2.764936e+00 182 178 176
-4.690951e-02 4.131835e-01 -2.814979e+00 154 156 160
-1.465516e-01 4.096408e-01 -2.795208e+00 147 138 131
-2.916843e-01 4.071842e-01 -2.842766e+00 86 78 70
2.572725e-01 4.077313e-01 -2.817418e+00 233 235 234
2.819701e-01 4.051168e-01 -2.815644e+00 199 192 188
2.818110e-01 4.050144e-01 -2.815590e+00 199 192 188
-2.968888e-01 4.031285e-01 -2.840730e+00 123 113 111
3.349857e-01 4.039655e-01 -2.806324e+00 89 92 84
5.768825e-02 3.996072e-01 -2.759839e+00 179 174 171
4.784766e-01 4.009691e-01 -2.809131e+00 125 122 120
2.796089e-01 3.923933e-01 -2.808675e+00 245 236 243
2.661147e-01 3.873688e-01 -2.812550e+00 28 38 55
1.860800e-01 3.844797e-01 -2.767202e+00 155 155 158
3.219968e-01 3.784633e-01 -2.779265e+00 159 148 144
1.102793e-01 3.633147e-01 -2.754733e+00 188 184 181
2.763971e-01 3.645777e-01 -2.770768e+00 204 216 229
-2.620057e-01 3.500934e-01 -2.834283e+00 154 150 151
1.162361e-01 3.541534e-01 -2.752876e+00 188 187 182
1.581353e-01 3.521023e-01 -2.763246e+00 215 222 228
1.068688e-01 3.498622e-01 -2.750601e+00 183 181 179
9.845871e-02 3.466768e-01 -2.752119e+00 156 152 149
1.123465e-01 3.452997e-01 -2.754991e+00 118 118 117
8.517638e-02 3.434269e-01 -2.749374e+00 185 182 177
-2.713902e-01 3.273229e-01 -2.826587e+00 159 149 148
1.387144e-01 3.360853e-01 -2.757208e+00 160 165 171
4.550092e-01 3.370990e-01 -2.802308e+00 188 184 181
8.262489e-02 3.334985e-01 -2.746710e+00 144 142 141
-2.668141e-01 3.134306e-01 -2.825298e+00 75 70 77
4.279195e-01 3.228939e-01 -2.794961e+00 98 95 90
4.269825e-01 3.159286e-01 -2.791369e+00 199 191 189
3.093683e-01 3.087504e-01 -2.794171e+00 196 196 188
-2.675086e-01 2.959499e-01 -2.821843e+00 176 151 153
-3.177827e-01 2.955267e-01 -2.823242e+00 57 55 55
-2.754216e-01 2.957935e-01 -2.820914e+00 153 143 147
-5.944091e-02 3.055857e-01 -2.767081e+00 47 29 37
4.274673e-01 3.085321e-01 -2.792431e+00 37 28 25
4.083184e-01 3.084963e-01 -2.788553e+00 215 215 209
-2.199863e-01 2.921088e-01 -2.817356e+00 189 179 185
-2.728190e-01 2.901762e-01 -2.819227e+00 76 65 64
3.089367e-01 2.953492e-01 -2.791454e+00 61 72 84
1.051239e-01 2.982284e-01 -2.741814e+00 180 173 171
-2.732479e-01 2.781081e-01 -2.816655e+00 163 153 149
1.155855e-01 2.962165e-01 -2.746583e+00 51 58 61
1.252848e-01 2.803962e-01 -2.776167e+00 44 45 50
1.257909e-01 2.806464e-01 -2.775099e+00 44 45 50
4.407540e-01 2.801135e-01 -2.788497e+00 225 216 215
2.531044e-01 2.757075e-01 -2.783494e+00 178 165 151
3.926395e-01 2.720972e-01 -2.779797e+00 86 86 85
2.030596e-01 2.513377e-01 -2.775723e+00 157 156 131
1.999149e-01 2.509230e-01 -2.777052e+00 121 129 103
2.845415e-01 2.478207e-01 -2.781733e+00 121 115 99
2.715817e-01 2.456372e-01 -2.778420e+00 206 207 199
-6.342815e-02 2.384240e-01 -2.781941e+00 99 89 87
-6.613833e-02 2.376931e-01 -2.779975e+00 112 106 102
-7.401171e-02 2.347398e-01 -2.782735e+00 81 74 68
-7.368822e-02 2.348161e-01 -2.783246e+00 81 74 68
-8.719535e-02 2.338672e-01 -2.780687e+00 208 200 190
-7.165624e-02 2.315395e-01 -2.779783e+00 92 81 75
-8.032453e-02 2.300496e-01 -2.780132e+00 110 106 107
-7.115369e-02 2.297182e-01 -2.780005e+00 204 189 181
2.088479e-01 2.339762e-01 -2.772049e+00 108 108 90
3.006126e-01 2.316972e-01 -2.779547e+00 159 153 139
2.677833e-01 2.291727e-01 -2.775692e+00 106 110 89
3.478218e-01 2.257389e-01 -2.781905e+00 182 186 188
3.793985e-01 2.252914e-01 -2.783831e+00 86 95 108
4.056489e-01 1.770942e-01 -2.779447e+00 205 209 205
4.630483e-01 1.774481e-01 -2.770501e+00 120 119 119
4.630483e-01 1.774481e-01 -2.770501e+00 120 119 119
2.130516e-01 1.911727e-01 -2.715753e+00 98 108 99
2.621973e-01 1.138240e-01 -2.755870e+00 53 63 35
4.053428e-01 1.103101e-01 -2.759962e+00 195 161 150
3.391780e-01 7.820618e-02 -2.760938e+00 111 111 88
3.545989e-01 7.706297e-02 -2.762477e+00 71 74 42
3.478616e-01 7.466896e-02 -2.758450e+00 138 138 111
4.249827e-01 -7.520681e-02 -2.753606e+00 146 146 147
4.018988e-01 -7.691356e-02 -2.729772e+00 99 100 105
3.903194e-01 -1.145705e-01 -2.746147e+00 157 161 160
2.149442e-01 -1.092188e-01 -2.655005e+00 185 186 177
2.485086e-01 -1.139845e-01 -2.659201e+00 192 192 192
3.417503e-01 -2.125157e-01 -2.660270e+00 187 163 169
3.684439e-02 7.179752e-01 -2.870109e+00 20 19 25
1.299023e-01 6.628618e-01 -2.874172e+00 157 147 155
1.022137e-01 6.598122e-01 -2.873458e+00 206 208 198
1.895809e-01 6.472182e-01 -2.872018e+00 91 76 50
2.612915e-01 6.431620e-01 -2.875593e+00 196 186 177
2.296534e-01 6.332191e-01 -2.866402e+00 122 112 114
2.296529e-01 6.333457e-01 -2.868940e+00 122 112 114
-6.708487e-02 6.214527e-01 -2.875547e+00 112 105 101
3.059425e-01 6.208018e-01 -2.868929e+00 234 228 192
-5.907347e-02 6.157799e-01 -2.872098e+00 190 190 184
-9.404105e-02 6.094519e-01 -2.868314e+00 74 79 88
2.991818e-01 6.077520e-01 -2.864323e+00 220 206 197
2.251970e-01 5.964012e-01 -2.855967e+00 190 186 182
2.940268e-01 5.956598e-01 -2.860662e+00 170 161 152
-1.519464e-02 5.882865e-01 -2.851973e+00 151 145 148
-1.066743e-02 5.840327e-01 -2.851902e+00 171 168 158
-1.410163e-02 5.826101e-01 -2.852230e+00 159 155 154
-1.708280e-02 5.803366e-01 -2.849635e+00 115 117 121
6.689312e-02 5.470721e-01 -2.801703e+00 194 190 187
-2.004391e-01 5.572895e-01 -2.855519e+00 180 179 175
-1.857923e-01 5.456055e-01 -2.846156e+00 32 36 45
-1.738710e-01 5.447912e-01 -2.851234e+00 111 110 122
-1.738710e-01 5.447912e-01 -2.851234e+00 111 110 122
-4.191910e-02 5.382890e-01 -2.842762e+00 119 123 133
-9.614193e-02 5.152401e-01 -2.840036e+00 62 70 83
2.130366e-01 5.111669e-01 -2.826537e+00 156 155 164
2.277047e-01 5.096706e-01 -2.829434e+00 181 183 176
-1.450645e-01 5.076452e-01 -2.838664e+00 36 45 54
-6.907344e-02 4.942025e-01 -2.834360e+00 166 164 170
1.662643e-02 4.886320e-01 -2.782821e+00 169 165 164
2.390288e-02 4.821203e-01 -2.779038e+00 172 168 169
-1.083336e-01 4.818417e-01 -2.830871e+00 150 149 157
-1.979462e-01 4.777523e-01 -2.812530e+00 53 62 71
-1.675534e-01 4.638700e-01 -2.809373e+00 218 217 211
3.035994e-03 4.606473e-01 -2.778970e+00 178 170 167
3.642311e-02 4.572999e-01 -2.777224e+00 172 167 163
-2.173537e-01 4.572501e-01 -2.814851e+00 83 79 97
-2.173537e-01 4.572501e-01 -2.814851e+00 83 79 97
1.205285e-01 4.485977e-01 -2.775806e+00 177 173 170
7.095710e-02 4.444988e-01 -2.777077e+00 182 173 171
7.085142e-02 4.446085e-01 -2.778070e+00 182 173 171
1.111881e-01 4.451772e-01 -2.775432e+00 178 177 173
5.625462e-02 4.440102e-01 -2.771463e+00 178 173 170
-1.909605e-01 4.456187e-01 -2.811751e+00 189 196 199
-1.993563e-01 4.399173e-01 -2.811111e+00 187 187 188
9.225329e-02 4.336627e-01 -2.772118e+00 163 162 160
-2.023105e-01 4.346240e-01 -2.809295e+00 157 155 151
-2.198053e-01 4.193520e-01 -2.807042e+00 175 174 180
-4.084159e-02 4.086365e-01 -2.814784e+00 67 81 86
-2.906410e-01 4.047138e-01 -2.841398e+00 143 134 126
1.157572e-01 4.054204e-01 -2.765113e+00 167 163 162
1.646174e-01 3.975850e-01 -2.768747e+00 174 169 166
9.567525e-02 3.881985e-01 -2.760055e+00 157 154 150
1.930713e-01 3.885085e-01 -2.769302e+00 193 194 199
4.282866e-01 3.954064e-01 -2.768080e+00 73 68 77
2.581273e-01 3.842073e-01 -2.811069e+00 109 105 92
9.857428e-02 3.847621e-01 -2.761124e+00 173 169 166
1.092415e-02 3.709670e-01 -2.808229e+00 81 79 83
-3.286244e-01 3.657759e-01 -2.835481e+00 79 77 82
3.036445e-01 3.639231e-01 -2.771906e+00 201 214 223
1.871117e-01 3.601187e-01 -2.769467e+00 166 174 177
1.947879e-01 3.592054e-01 -2.771752e+00 173 185 194
-2.748479e-01 3.470350e-01 -2.831113e+00 163 160 162
-2.750113e-01 3.465642e-01 -2.832710e+00 163 160 162
3.250310e-02 3.476232e-01 -2.803857e+00 174 161 145
-2.667355e-01 3.423292e-01 -2.831241e+00 75 73 76
3.545578e-02 3.419850e-01 -2.803518e+00 175 164 148
3.545578e-02 3.419850e-01 -2.803518e+00 175 164 148
1.119905e-01 3.466767e-01 -2.754263e+00 199 199 197
2.244418e-01 3.469165e-01 -2.759750e+00 179 209 226
1.813620e-01 3.428030e-01 -2.763685e+00 154 158 157
1.043625e-01 3.389909e-01 -2.750218e+00 142 140 141
4.565149e-01 3.387549e-01 -2.801719e+00 98 95 90
1.869650e-01 3.344972e-01 -2.763022e+00 144 136 134
6.956088e-02 3.339995e-01 -2.748296e+00 68 66 65
-2.691046e-01 3.208932e-01 -2.825625e+00 87 76 70
-2.871028e-01 3.195401e-01 -2.825028e+00 166 154 149
1.061231e-01 3.307809e-01 -2.750576e+00 38 31 38
-2.831162e-01 3.160623e-01 -2.826286e+00 64 59 59
-2.730783e-01 3.160884e-01 -2.825903e+00 172 164 155
-2.729834e-01 3.163323e-01 -2.825074e+00 172 164 155
-2.505592e-01 3.154488e-01 -2.822427e+00 81 74 81
-1.078734e-01 3.120041e-01 -2.780544e+00 169 177 185
2.318783e-01 3.139414e-01 -2.786329e+00 67 65 52
2.212012e-01 3.075176e-01 -2.786575e+00 162 157 141
2.329021e-01 2.991822e-01 -2.787196e+00 136 136 110
1.102778e-01 2.975676e-01 -2.745749e+00 174 169 166
1.167493e-01 2.949961e-01 -2.745577e+00 46 50 56
4.500553e-01 2.877939e-01 -2.792531e+00 123 107 90
9.992528e-02 2.866358e-01 -2.741938e+00 46 48 48
-2.906202e-01 2.615550e-01 -2.813690e+00 172 164 156
2.351108e-01 2.639864e-01 -2.779212e+00 106 100 86
2.182384e-01 2.620168e-01 -2.778634e+00 147 151 126
2.182384e-01 2.620168e-01 -2.778634e+00 147 151 126
2.898479e-01 2.538236e-01 -2.782305e+00 194 191 183
-2.664523e-01 2.316271e-01 -2.806644e+00 67 56 61
3.588376e-01 2.341128e-01 -2.785137e+00 195 197 198
3.635461e-01 2.340959e-01 -2.784955e+00 196 198 203
-7.230577e-02 2.255162e-01 -2.780617e+00 206 200 193
-7.230577e-02 2.255162e-01 -2.780617e+00 206 200 193
2.685860e-01 2.307754e-01 -2.777428e+00 37 39 25
2.598882e-01 2.299206e-01 -2.776043e+00 37 37 24
2.637810e-01 2.277329e-01 -2.775323e+00 42 44 32
3.529690e-01 2.206085e-01 -2.781758e+00 195 196 201
4.372184e-01 2.202080e-01 -2.775867e+00 201 200 199
4.457897e-01 2.192810e-01 -2.778013e+00 215 210 204
2.664416e-01 2.041856e-01 -2.772594e+00 103 106 81
4.114371e-01 1.934944e-01 -2.783361e+00 41 45 55
4.029412e-01 1.603967e-01 -2.776705e+00 154 148 132
8.013848e-03 1.686127e-01 -2.689468e+00 71 85 110
3.303639e-02 1.415988e-01 -2.704462e+00 33 39 51
4.771396e-01 9.280840e-02 -2.773806e+00 82 87 99
3.562496e-01 8.684480e-02 -2.757014e+00 55 56 45
4.385790e-01 -7.081317e-02 -2.760069e+00 154 152 148
5.319626e-01 -9.947646e-02 -2.749892e+00 156 148 137
2.678736e-01 -1.312143e-01 -2.657587e+00 82 37 65
1.682102e-01 -1.013632e-01 -2.619138e+00 109 122 130
2.372770e-01 -1.697136e-01 -2.638102e+00 22 22 15
3.076134e-02 7.083822e-01 -2.875977e+00 23 21 27
2.213682e-02 6.812489e-01 -2.869843e+00 51 52 57
1.746000e-02 6.710260e-01 -2.867914e+00 48 47 53
9.151385e-02 6.716895e-01 -2.878248e+00 188 180 178
1.398777e-02 6.637290e-01 -2.865830e+00 62 59 67
1.180648e-01 6.414708e-01 -2.870436e+00 196 189 185
-3.380204e-02 6.241414e-01 -2.875239e+00 192 187 180
-5.410739e-02 6.139188e-01 -2.870670e+00 164 165 157
3.076777e-01 6.151464e-01 -2.858741e+00 250 247 240
-8.940780e-02 6.006621e-01 -2.867596e+00 66 70 79
-9.141197e-02 5.943328e-01 -2.862241e+00 44 48 59
-7.253283e-02 5.932708e-01 -2.866211e+00 46 54 64
1.234368e-01 5.771620e-01 -2.847314e+00 91 91 90
2.517182e-01 5.739813e-01 -2.853391e+00 188 187 185
1.992063e-01 5.702957e-01 -2.844628e+00 171 170 169
-1.910974e-01 5.582971e-01 -2.853225e+00 36 37 56
2.657507e-01 5.525839e-01 -2.844781e+00 169 164 161
2.655608e-01 5.526373e-01 -2.844975e+00 169 164 161
2.629550e-01 5.496772e-01 -2.840747e+00 237 230 224
2.629550e-01 5.496772e-01 -2.840747e+00 237 230 224
2.598071e-01 5.464990e-01 -2.841241e+00 177 167 163
2.075146e-01 5.354472e-01 -2.839023e+00 171 170 165
2.385838e-01 5.237792e-01 -2.830990e+00 207 200 193
1.306630e-01 5.001489e-01 -2.791798e+00 153 150 149
-1.583925e-01 4.991317e-01 -2.838227e+00 34 40 52
4.171035e-02 4.930213e-01 -2.783533e+00 174 170 169
5.017047e-02 4.853562e-01 -2.782945e+00 179 175 171
8.266994e-02 4.814678e-01 -2.784291e+00 174 170 167
1.199857e-01 4.802799e-01 -2.788065e+00 165 161 159
1.005862e-01 4.737710e-01 -2.782846e+00 193 188 185
1.268514e-01 4.588071e-01 -2.783192e+00 179 175 174
1.555133e-01 4.532546e-01 -2.781945e+00 149 146 144
-1.987459e-01 4.564682e-01 -2.810653e+00 192 191 196
1.614335e-02 4.503313e-01 -2.771154e+00 192 187 184
1.912229e-02 4.496341e-01 -2.773397e+00 161 156 153
1.421744e-01 4.463497e-01 -2.779096e+00 148 144 144
1.389590e-01 4.416648e-01 -2.777305e+00 178 174 170
-2.239372e-01 4.430048e-01 -2.814560e+00 167 145 146
-1.967705e-01 4.389789e-01 -2.810196e+00 159 150 143
2.033026e-01 4.331891e-01 -2.824056e+00 45 48 53
4.958633e-02 4.272999e-01 -2.766824e+00 176 172 171
4.958633e-02 4.272999e-01 -2.766824e+00 176 172 171
1.269060e-01 4.146473e-01 -2.767698e+00 166 162 159
-4.451837e-02 4.089680e-01 -2.814747e+00 147 151 160
3.779962e-02 4.059694e-01 -2.763628e+00 152 149 147
1.417901e-01 4.064871e-01 -2.767828e+00 155 154 152
-6.692276e-02 3.988177e-01 -2.816149e+00 156 162 163
1.408643e-01 4.034359e-01 -2.767347e+00 182 181 177
3.896149e-02 4.016724e-01 -2.765362e+00 149 144 142
1.514426e-01 4.018064e-01 -2.767129e+00 159 156 152
8.034262e-02 4.000660e-01 -2.763906e+00 185 181 178
-3.096161e-01 3.952979e-01 -2.839995e+00 53 54 58
9.749983e-02 3.950373e-01 -2.763326e+00 168 164 163
-3.019693e-01 3.916180e-01 -2.840884e+00 70 70 74
-2.651440e-01 3.898707e-01 -2.839374e+00 168 154 148
1.825675e-01 3.895801e-01 -2.767534e+00 150 146 145
1.569122e-01 3.856183e-01 -2.765551e+00 184 179 176
-2.656913e-01 3.727817e-01 -2.833868e+00 166 155 159
1.146259e-01 3.777778e-01 -2.760595e+00 167 163 160
-3.225039e-01 3.714669e-01 -2.835576e+00 84 79 85
2.623688e-01 3.711515e-01 -2.772087e+00 197 203 208
-2.607148e-01 3.590534e-01 -2.835382e+00 172 161 152
1.453397e-01 3.672946e-01 -2.759039e+00 161 161 159
-3.123323e-01 3.586665e-01 -2.834949e+00 42 43 48
-1.704141e-01 3.568960e-01 -2.794335e+00 184 192 195
3.287967e-01 3.642038e-01 -2.771406e+00 177 191 194
8.247493e-02 3.573883e-01 -2.750977e+00 157 152 149
2.032350e-01 3.566813e-01 -2.771037e+00 164 172 181
8.626796e-02 3.480755e-01 -2.754359e+00 171 168 163
1.015783e-01 3.464579e-01 -2.752589e+00 188 184 180
3.007872e-01 3.436922e-01 -2.767681e+00 79 105 125
4.510505e-01 3.311689e-01 -2.800836e+00 106 102 94
-2.882708e-01 3.049840e-01 -2.823571e+00 45 46 54
1.146470e-01 3.028547e-01 -2.745915e+00 164 162 162
4.350252e-01 2.999698e-01 -2.789101e+00 196 183 167
-1.013418e-01 2.886282e-01 -2.779645e+00 199 211 212
1.075642e-01 2.969658e-01 -2.745594e+00 43 38 38
3.183453e-01 2.899704e-01 -2.791204e+00 74 85 82
1.183187e-01 2.935651e-01 -2.742189e+00 153 158 164
9.718738e-02 2.917616e-01 -2.743659e+00 24 23 22
9.446457e-02 2.928266e-01 -2.739136e+00 159 156 155
4.425129e-01 2.891539e-01 -2.789737e+00 209 192 172
-2.791285e-01 2.643503e-01 -2.815587e+00 156 148 145
-2.791285e-01 2.643503e-01 -2.815587e+00 156 148 145
2.251137e-01 2.635848e-01 -2.778764e+00 170 167 144
3.413747e-01 2.608856e-01 -2.788213e+00 199 198 196
2.859797e-01 2.602081e-01 -2.783946e+00 200 197 191
-6.899615e-02 2.500094e-01 -2.782253e+00 191 184 176
1.195953e-02 2.452224e-01 -2.778785e+00 113 116 123
2.864859e-01 2.460968e-01 -2.781424e+00 200 196 183
2.864859e-01 2.460968e-01 -2.781424e+00 200 196 183
3.383265e-01 2.443290e-01 -2.786272e+00 202 199 194
4.361766e-01 2.467599e-01 -2.779444e+00 218 214 211
-6.065040e-02 2.363756e-01 -2.782660e+00 219 208 202
2.571294e-01 2.423625e-01 -2.780071e+00 36 39 25
-6.989874e-02 2.333203e-01 -2.783463e+00 221 214 204
3.550970e-01 2.345184e-01 -2.784055e+00 92 101 113
1.945327e-01 2.230673e-01 -2.768294e+00 56 66 68
2.654166e-01 2.214256e-01 -2.774784e+00 30 32 17
2.656547e-01 2.208802e-01 -2.776386e+00 30 32 17
2.632930e-01 2.036547e-01 -2.772006e+00 31 34 25
4.103870e-01 2.011470e-01 -2.782251e+00 175 151 162
3.711512e-01 1.872734e-01 -2.778210e+00 190 193 181
3.711512e-01 1.872734e-01 -2.778210e+00 190 193 181
3.745105e-01 1.867211e-01 -2.778224e+00 56 62 80
5.233003e-01 1.279426e-01 -2.750245e+00 31 35 33
3.427214e-01 8.622422e-02 -2.761052e+00 135 135 109
2.448978e-01 1.018588e-01 -2.717341e+00 24 25 25
3.505833e-01 -2.918509e-02 -2.709797e+00 48 51 38
2.521428e-01 -1.254322e-01 -2.657975e+00 191 191 189
2.518458e-01 -1.229762e-01 -2.653883e+00 191 191 189
1.125839e-01 -1.032197e-01 -2.625452e+00 153 151 160
1.677244e-01 -1.167645e-01 -2.617734e+00 23 36 48
2.742995e-02 7.020926e-01 -2.875494e+00 21 20 26
1.871706e-02 6.981694e-01 -2.859675e+00 54 43 49
3.246220e-02 7.008932e-01 -2.883584e+00 31 30 36
1.921545e-02 6.774933e-01 -2.868904e+00 52 53 58
2.813440e-01 6.728305e-01 -2.882233e+00 66 67 75
2.248277e-01 6.470042e-01 -2.870720e+00 98 93 100
-5.042426e-02 5.911946e-01 -2.864743e+00 50 57 65
4.170420e-02 5.823583e-01 -2.833081e+00 55 52 46
-7.033553e-02 5.879297e-01 -2.865562e+00 46 51 60
-1.512672e-01 5.777753e-01 -2.859852e+00 33 37 48
-3.327829e-02 5.680754e-01 -2.848857e+00 49 51 60
2.434606e-01 5.654023e-01 -2.847468e+00 165 162 161
-1.353938e-01 5.586450e-01 -2.852379e+00 31 40 49
1.921976e-01 5.415540e-01 -2.834913e+00 72 79 84
8.998846e-02 5.139637e-01 -2.790638e+00 169 163 165
2.352615e-01 5.151676e-01 -2.827999e+00 179 165 164
2.353603e-01 5.150975e-01 -2.831121e+00 179 165 164
2.744977e-01 5.087942e-01 -2.784507e+00 213 214 209
1.024790e-01 4.975540e-01 -2.789745e+00 175 171 170
-1.960319e-01 5.032547e-01 -2.836850e+00 19 21 26
7.207701e-03 4.699883e-01 -2.775514e+00 165 162 157
1.241065e-01 4.679068e-01 -2.784814e+00 167 165 164
2.084546e-02 4.649620e-01 -2.777085e+00 160 155 152
8.941904e-02 4.592242e-01 -2.778981e+00 190 187 184
9.960699e-02 4.545667e-01 -2.777682e+00 177 176 174
1.178895e-01 4.515549e-01 -2.777959e+00 175 173 168
2.738869e-01 4.485329e-01 -2.768408e+00 169 157 125
6.030121e-02 4.413873e-01 -2.771858e+00 126 122 120
1.437224e-01 4.412156e-01 -2.777179e+00 154 150 148
-2.258736e-01 4.371951e-01 -2.812408e+00 165 143 150
-2.296684e-01 4.343243e-01 -2.813271e+00 59 57 68
4.276906e-02 4.291972e-01 -2.766099e+00 153 152 148
1.623020e-01 4.261583e-01 -2.774318e+00 170 166 162
1.353318e-01 4.200059e-01 -2.773178e+00 151 150 148
1.351090e-01 4.201219e-01 -2.774215e+00 151 150 148
5.568580e-02 4.090931e-01 -2.762367e+00 183 179 176
1.813622e-01 4.035333e-01 -2.771607e+00 146 140 138
2.364519e-01 4.011292e-01 -2.816984e+00 152 146 141
1.781408e-01 4.025748e-01 -2.769455e+00 178 175 170
2.650496e-01 4.002413e-01 -2.814235e+00 241 233 227
1.601298e-01 3.983922e-01 -2.768331e+00 189 186 181
1.053479e-01 3.925526e-01 -2.763577e+00 152 151 149
1.585672e-01 3.930569e-01 -2.768868e+00 180 177 173
-3.159580e-01 3.704847e-01 -2.837652e+00 116 110 108
-2.650029e-01 3.673707e-01 -2.834171e+00 165 156 153
3.038170e-01 3.723288e-01 -2.777135e+00 201 206 211
-3.319279e-01 3.619423e-01 -2.836119e+00 43 42 48
-3.061447e-01 3.184500e-01 -2.826686e+00 145 135 128
4.772823e-02 3.146949e-01 -2.798112e+00 144 130 118
-2.981607e-01 2.723510e-01 -2.815770e+00 49 44 42
6.237607e-02 2.786593e-01 -2.789167e+00 130 121 115
4.412129e-01 2.796881e-01 -2.789629e+00 207 197 196
4.435600e-01 2.763007e-01 -2.787179e+00 194 184 182
1.768671e-01 2.662198e-01 -2.774895e+00 126 131 98
3.250196e-01 2.648934e-01 -2.792124e+00 190 187 182
7.568138e-03 2.423103e-01 -2.777535e+00 124 121 128
1.939031e-01 2.347214e-01 -2.770631e+00 38 45 47
-2.379179e-02 2.056432e-01 -2.698510e+00 24 28 39
3.191818e-01 1.995320e-01 -2.648621e+00 112 122 93
2.502858e-01 1.152858e-01 -2.764361e+00 23 27 21
2.835688e-01 8.198855e-02 -2.753476e+00 40 47 31
2.836618e-01 7.780332e-02 -2.752987e+00 66 74 52
3.298311e-01 5.042549e-02 -2.751915e+00 110 116 77
3.267221e-01 -4.316389e-05 -2.712849e+00 97 102 73
2.563884e-01 -1.138193e-01 -2.661337e+00 191 186 180
1.022092e-01 6.715967e-01 -2.878811e+00 192 183 177
-4.037286e-02 6.219882e-01 -2.873241e+00 186 177 168
9.211791e-02 6.061732e-01 -2.860670e+00 190 181 172
-8.830596e-03 5.800253e-01 -2.849858e+00 81 82 87
-6.792898e-02 5.710421e-01 -2.858651e+00 44 53 60
2.822987e-01 5.700516e-01 -2.852423e+00 225 216 211
-7.151130e-02 5.649108e-01 -2.856924e+00 44 51 61
-1.448434e-01 5.631656e-01 -2.857275e+00 28 34 46
2.791796e-01 5.467123e-01 -2.797531e+00 89 93 98
-2.007034e-01 5.524387e-01 -2.852997e+00 47 51 52
2.277689e-01 5.460000e-01 -2.839753e+00 181 177 175
-3.675355e-02 5.417688e-01 -2.844438e+00 55 62 74
1.221561e-01 5.077815e-01 -2.791166e+00 143 139 140
7.329532e-02 5.047815e-01 -2.789206e+00 157 156 154
-1.519900e-01 5.111498e-01 -2.842764e+00 33 40 51
-1.050763e-01 5.072051e-01 -2.839597e+00 22 29 37
-8.656279e-02 4.931878e-01 -2.835272e+00 145 143 156
2.898000e-02 4.885105e-01 -2.783710e+00 159 155 155
2.424180e-01 4.871849e-01 -2.814178e+00 58 55 56
-1.466204e-01 4.531893e-01 -2.825726e+00 40 40 45
-2.061559e-01 4.226707e-01 -2.806364e+00 156 137 128
-1.625743e-01 4.177245e-01 -2.798334e+00 164 139 132
-1.960655e-01 4.159081e-01 -2.808188e+00 157 138 131
2.428745e-01 4.045428e-01 -2.816559e+00 168 155 147
1.638093e-01 4.004397e-01 -2.769576e+00 158 153 150
8.940355e-02 3.915861e-01 -2.765397e+00 170 165 162
-2.619695e-01 3.818258e-01 -2.837653e+00 167 153 148
-7.222989e-02 3.779958e-01 -2.812699e+00 162 167 158
1.078484e-01 3.668631e-01 -2.756768e+00 182 178 175
1.343450e-01 3.669569e-01 -2.757414e+00 170 169 165
3.252902e-01 3.561868e-01 -2.769355e+00 152 165 174
7.206582e-02 3.520231e-01 -2.751770e+00 177 172 168
1.698112e-01 3.356946e-01 -2.761063e+00 155 159 162
-4.990098e-02 3.080852e-01 -2.794845e+00 41 45 54
-2.557521e-01 2.951568e-01 -2.817973e+00 57 146 201
-1.582626e-02 2.922505e-01 -2.790006e+00 49 56 63
1.040544e-01 2.855900e-01 -2.742501e+00 163 164 169
-2.758461e-01 2.530482e-01 -2.812105e+00 171 155 145
3.048567e-01 2.523716e-01 -2.781414e+00 198 195 190
3.556895e-01 2.433936e-01 -2.786136e+00 100 107 124
2.581767e-01 2.370199e-01 -2.776971e+00 47 49 38
1.901916e-01 2.155143e-01 -2.723135e+00 105 114 102
1.901916e-01 2.155143e-01 -2.723135e+00 105 114 102
3.952370e-01 1.297897e-01 -2.768531e+00 169 164 158
-5.904723e-03 1.767166e-01 -2.589406e+00 166 166 168
3.026866e-01 9.684342e-02 -2.758060e+00 63 76 46
2.447993e-01 1.105577e-01 -2.717100e+00 124 125 91
5.463201e-03 6.813418e-01 -2.820157e+00 53 40 50
9.824361e-02 6.848613e-01 -2.883351e+00 180 174 174
-8.232706e-02 6.246269e-01 -2.871186e+00 65 63 77
-3.561523e-02 6.057641e-01 -2.870706e+00 180 174 163
1.171934e-01 5.836526e-01 -2.849921e+00 86 92 98
2.660551e-01 5.877877e-01 -2.858955e+00 173 168 164
2.447228e-01 5.589996e-01 -2.848095e+00 185 184 180
-4.185614e-02 5.364789e-01 -2.844356e+00 107 110 121
1.962200e-01 5.351561e-01 -2.834241e+00 79 86 92
8.100520e-02 5.265984e-01 -2.796011e+00 169 165 164
2.175174e-01 5.146212e-01 -2.829800e+00 86 93 100
2.271641e-01 5.048880e-01 -2.827577e+00 79 91 94
1.011404e-01 4.818585e-01 -2.785555e+00 191 190 188
1.205987e-01 4.705607e-01 -2.783451e+00 146 144 145
5.341753e-02 4.476359e-01 -2.772324e+00 144 140 132
-2.400730e-01 4.281796e-01 -2.809794e+00 52 63 80
6.294840e-02 4.113360e-01 -2.765637e+00 128 124 121
-2.989914e-02 4.092001e-01 -2.814707e+00 58 67 73
5.717895e-02 3.944857e-01 -2.759294e+00 183 179 176
-1.919827e-01 3.898132e-01 -2.802296e+00 179 175 176
1.200229e-02 3.783883e-01 -2.810142e+00 37 38 40
-8.663303e-02 3.862361e-01 -2.705399e+00 83 94 58
5.196813e-02 3.705662e-01 -2.752288e+00 187 183 181
4.827150e-01 3.664463e-01 -2.814698e+00 149 147 117
6.330474e-02 3.499351e-01 -2.751880e+00 184 177 172
9.118807e-02 3.422944e-01 -2.752526e+00 158 154 151
4.647389e-01 3.375486e-01 -2.803892e+00 201 193 184
-2.840773e-01 3.034153e-01 -2.824333e+00 47 47 55
-2.832679e-01 3.042045e-01 -2.822995e+00 47 47 55
-2.357986e-02 2.987915e-01 -2.792525e+00 54 63 71
-1.175599e-01 2.909439e-01 -2.778728e+00 180 188 193
4.775841e-02 2.661726e-01 -2.786598e+00 46 53 64
3.115816e-01 2.544517e-01 -2.786207e+00 212 209 204
3.767797e-01 2.443637e-01 -2.787562e+00 178 178 176
2.902978e-01 2.369222e-01 -2.773707e+00 126 119 106
4.283738e-01 2.311807e-01 -2.776409e+00 201 202 196
2.743795e-01 2.241651e-01 -2.776250e+00 29 32 23
3.115820e-01 2.209059e-01 -2.663970e+00 25 38 31
-8.506478e-03 2.041181e-01 -2.591633e+00 174 173 169
3.972876e-01 1.372073e-01 -2.769932e+00 144 140 129
3.494414e-01 9.109522e-02 -2.758742e+00 67 75 58
2.417573e-01 1.022197e-01 -2.721326e+00 129 137 93
2.417573e-01 1.022197e-01 -2.721326e+00 129 137 93
1.595166e-01 6.922791e-01 -2.800165e+00 227 150 167
-6.175871e-02 6.375521e-01 -2.873865e+00 55 59 71
-6.146090e-02 6.051367e-01 -2.869164e+00 129 131 143
2.915165e-01 6.064942e-01 -2.862704e+00 193 182 177
-6.567488e-02 5.833499e-01 -2.861914e+00 36 42 53
7.075065e-02 5.493963e-01 -2.799636e+00 188 186 182
7.053003e-02 5.486868e-01 -2.801155e+00 188 186 182
-1.852865e-01 5.554454e-01 -2.854740e+00 157 156 150
-1.852865e-01 5.554454e-01 -2.854740e+00 157 156 150
5.077170e-02 5.407172e-01 -2.798828e+00 161 155 155
6.301818e-02 5.093392e-01 -2.790951e+00 150 148 150
1.590181e-01 5.051928e-01 -2.804274e+00 121 117 116
3.773760e-02 4.507951e-01 -2.772112e+00 169 163 163
3.070516e-02 4.463390e-01 -2.769088e+00 163 158 160
-2.484365e-01 4.360296e-01 -2.816887e+00 46 43 54
7.519448e-02 4.261196e-01 -2.769821e+00 157 153 150
-2.325774e-01 4.268557e-01 -2.812273e+00 171 171 179
2.096002e-01 4.170416e-01 -2.818297e+00 46 49 56
1.028350e-01 4.098496e-01 -2.765465e+00 163 159 155
-6.848259e-02 3.980674e-01 -2.811961e+00 155 156 158
1.428592e-01 3.977078e-01 -2.765105e+00 166 162 160
2.347128e-01 3.932753e-01 -2.812596e+00 48 47 54
2.347128e-01 3.932753e-01 -2.812596e+00 48 47 54
6.816422e-02 3.857279e-01 -2.759726e+00 141 137 136
1.895174e-01 3.804059e-01 -2.769650e+00 28 30 39
4.616611e-01 3.621540e-01 -2.809175e+00 36 37 42
-3.288016e-01 3.466524e-01 -2.834724e+00 39 41 46
1.799385e-01 3.488680e-01 -2.766121e+00 160 178 188
1.798327e-01 3.486946e-01 -2.767351e+00 160 178 188
4.652263e-01 3.460928e-01 -2.803574e+00 62 54 51
-7.514275e-02 3.035258e-01 -2.777098e+00 28 28 33
1.866094e-01 2.582092e-01 -2.775569e+00 89 113 70
7.025749e-02 2.401934e-01 -2.787514e+00 32 39 50
4.266538e-01 2.388608e-01 -2.778250e+00 124 128 135
3.578767e-01 2.290237e-01 -2.783023e+00 83 90 101
4.166506e-01 1.775887e-01 -2.775434e+00 212 211 210
4.459690e-01 1.506419e-01 -2.777711e+00 195 191 190
-4.598128e-02 2.027689e-01 -2.594683e+00 165 164 162
3.887049e-01 1.404125e-01 -2.772052e+00 182 179 169
3.857204e-01 1.203107e-01 -2.760177e+00 66 68 53
1.213233e-01 6.611518e-01 -2.872438e+00 55 52 60
3.001311e-01 6.294712e-01 -2.874592e+00 48 49 41
-1.102447e-01 6.130240e-01 -2.870653e+00 35 39 50
4.502149e-02 5.874525e-01 -2.834384e+00 183 176 165
-1.507575e-02 5.670302e-01 -2.848604e+00 178 169 164
-1.507571e-02 5.671286e-01 -2.847870e+00 178 169 164
-1.471530e-01 5.527565e-01 -2.851083e+00 28 34 46
4.830568e-02 4.909460e-01 -2.783210e+00 171 167 165
1.373253e-01 4.426211e-01 -2.777370e+00 172 169 164
1.373474e-01 4.427067e-01 -2.776803e+00 172 169 164
1.211851e-01 4.246409e-01 -2.773933e+00 159 155 154
1.489559e-01 3.812797e-01 -2.762716e+00 132 132 127
-7.004073e-02 3.665658e-01 -2.806279e+00 165 159 154
1.126822e-01 3.701615e-01 -2.759084e+00 156 155 153
-1.416303e-01 2.717420e-01 -2.782448e+00 127 171 194
-2.608348e-01 2.527848e-01 -2.814408e+00 176 159 147
2.067252e-02 2.508900e-01 -2.778681e+00 155 154 157
4.018958e-01 2.343229e-01 -2.772350e+00 36 40 46
3.838086e-03 1.595381e-01 -2.592212e+00 151 149 152
1.671706e-01 -8.283755e-02 -2.622735e+00 143 159 167
3.497422e-01 -1.990349e-01 -2.731490e+00 36 36 46
1.238983e-01 6.750563e-01 -2.872249e+00 197 190 182
2.442159e-01 6.761888e-01 -2.886609e+00 53 53 59
1.350351e-01 6.684646e-01 -2.876950e+00 71 61 68
2.641240e-01 6.039498e-01 -2.863305e+00 194 180 175
-9.080229e-03 5.902913e-01 -2.852952e+00 175 166 157
1.188042e-01 4.902330e-01 -2.785153e+00 150 146 143
-5.658872e-02 4.042876e-01 -2.814631e+00 45 53 64
3.806329e-01 2.500750e-01 -2.786764e+00 170 165 159
1.334466e-01 2.075071e-01 -2.760363e+00 24 28 31
1.050562e-01 6.854260e-01 -2.859947e+00 169 163 163
1.940555e-01 5.524757e-01 -2.841315e+00 182 179 174
9.757239e-02 5.137521e-01 -2.793732e+00 150 149 147
6.338905e-02 4.910681e-01 -2.784186e+00 156 155 153
6.338905e-02 4.910681e-01 -2.784186e+00 156 155 153
6.768859e-02 4.714540e-01 -2.779991e+00 156 152 149
6.768859e-02 4.714540e-01 -2.779991e+00 156 152 149
2.239847e-01 4.360576e-01 -2.824852e+00 163 154 145
1.292391e-01 4.024778e-01 -2.767978e+00 175 170 167
3.031274e-01 3.908189e-01 -2.782170e+00 189 189 193
3.378842e-01 3.032087e-01 -2.788233e+00 113 118 125
3.642901e-01 2.443018e-01 -2.787009e+00 82 93 111
1.467487e-01 2.069011e-01 -2.760682e+00 15 16 18
-7.508024e-02 5.601824e-01 -2.839598e+00 26 26 34
-1.665466e-01 5.597218e-01 -2.859152e+00 29 36 48
3.503130e-01 4.562039e-01 -2.698276e+00 93 85 93
-2.828324e-01 4.152508e-01 -2.840121e+00 171 156 141
-3.082087e-01 2.959371e-01 -2.821209e+00 46 46 54
-8.733933e-02 2.870709e-01 -2.781678e+00 27 28 32
-1.107827e-01 2.679794e-01 -2.783340e+00 19 20 24
3.922783e-02 1.586306e-01 -2.764361e+00 15 17 22
1.015743e-01 3.555080e-01 -2.754986e+00 169 165 162
2.233831e-01 6.567625e-01 -2.844821e+00 65 64 70
2.521296e-01 6.410789e-01 -2.871323e+00 182 173 166
1.505175e-01 5.760118e-01 -2.827083e+00 206 199 187
1.852166e-01 5.816365e-01 -2.838208e+00 51 56 62
1.784785e-01 4.915873e-01 -2.800047e+00 196 188 185
-1.967858e-01 4.544530e-01 -2.811122e+00 180 185 191
-2.383941e-02 2.538280e-01 -2.772308e+00 23 24 30
-5.817461e-02 6.575460e-01 -2.866716e+00 51 58 68
2.861458e-01 6.280303e-01 -2.874614e+00 119 52 62
8.855872e-03 2.562199e-01 -2.810227e+00 157 156 154
2.359769e-01 2.021903e-01 -2.726989e+00 22 27 23
3.033533e-01 3.788426e-02 -2.763987e+00 27 29 28
1.831202e-01 4.500586e-01 -2.787261e+00 30 31 35
1.647765e-01 4.042266e-01 -2.769050e+00 165 160 157
2.128754e-01 3.842396e-01 -2.804597e+00 36 39 46
9.261985e-02 3.578673e-01 -2.791357e+00 180 175 171
1.363864e-01 -5.987230e-01 -2.711618e+00 44 33 37
1.368104e-01 -5.983907e-01 -2.711001e+00 44 33 37
2.031681e-01 -5.807225e-01 -2.680519e+00 100 47 20
1.085247e-01 -5.913724e-01 -2.708384e+00 191 183 181
1.442147e-01 -5.928243e-01 -2.707689e+00 127 110 102
7.183431e-02 -5.780085e-01 -2.706986e+00 165 166 163
3.202910e-01 -5.967950e-01 -2.722203e+00 49 46 31
3.019557e-01 -5.921289e-01 -2.722153e+00 119 111 101
2.861450e-01 -5.833125e-01 -2.716606e+00 106 95 86
2.865268e-01 -5.827001e-01 -2.715452e+00 106 95 86
1.662456e-01 -5.057770e-01 -2.683122e+00 57 34 17
4.082546e-01 -5.368026e-01 -2.677498e+00 94 82 96
3.797298e-01 -5.564934e-01 -2.727472e+00 64 51 41
3.797298e-01 -5.564934e-01 -2.727472e+00 64 51 41
1.549017e-01 -4.931086e-01 -2.683631e+00 36 34 21
4.293997e-01 -5.185878e-01 -2.686556e+00 187 179 167
2.447579e-01 -4.436009e-01 -2.630892e+00 196 194 200
2.447579e-01 -4.436009e-01 -2.630892e+00 196 194 200
1.420442e-01 -4.399042e-01 -2.668121e+00 22 27 22
8.048448e-03 -4.505876e-01 -2.710587e+00 23 26 34
3.740368e-01 -4.782194e-01 -2.698396e+00 53 55 54
3.736396e-01 -4.781973e-01 -2.698180e+00 53 55 54
4.754605e-01 -4.931569e-01 -2.742790e+00 156 149 133
3.579609e-01 -3.534317e-01 -2.567363e+00 173 173 175
4.229260e-01 -4.360506e-01 -2.705134e+00 169 179 180
4.201828e-01 -4.318202e-01 -2.701831e+00 160 163 174
-7.299026e-02 -3.722192e-01 -2.718244e+00 67 68 45
-7.299026e-02 -3.722192e-01 -2.718244e+00 67 68 45
-4.209429e-02 -3.680249e-01 -2.718998e+00 170 159 156
9.230310e-02 -3.622361e-01 -2.690406e+00 212 199 188
1.639205e-01 -3.772045e-01 -2.718173e+00 187 177 165
-9.289178e-02 -3.513134e-01 -2.719147e+00 122 130 109
4.769156e-01 -4.086975e-01 -2.715898e+00 43 42 46
4.575037e-01 -3.916162e-01 -2.715526e+00 142 148 152
4.764937e-01 -3.917593e-01 -2.721769e+00 72 74 91
2.983999e-01 -3.104206e-01 -2.643339e+00 180 169 172
1.638596e-01 -3.265437e-01 -2.720481e+00 188 186 175
3.237344e-01 -3.014870e-01 -2.644310e+00 178 165 160
1.019861e-01 -2.417268e-01 -2.657394e+00 62 62 60
-1.236354e-01 -2.155330e-01 -2.647304e+00 185 186 191
3.347237e-01 -2.674489e-01 -2.650127e+00 198 187 185
3.398183e-01 -2.640354e-01 -2.648307e+00 220 207 197
1.013007e-01 -2.238669e-01 -2.658174e+00 205 200 194
-1.369317e-01 -1.870655e-01 -2.652006e+00 175 176 179
1.367015e-01 -2.123640e-01 -2.661636e+00 153 151 137
2.834948e-01 -2.470774e-01 -2.727847e+00 126 113 97
2.834948e-01 -2.470774e-01 -2.727847e+00 126 113 97
-1.096415e-01 -1.750245e-01 -2.697446e+00 49 53 64
3.393383e-01 -2.154728e-01 -2.649951e+00 142 112 114
1.711539e-01 -1.752658e-01 -2.603905e+00 30 34 37
1.711539e-01 -1.752658e-01 -2.603905e+00 30 34 37
2.984587e-01 -2.334453e-01 -2.730078e+00 186 176 158
1.885643e-01 -1.841654e-01 -2.630511e+00 210 207 203
2.567554e-01 -2.259832e-01 -2.730855e+00 90 82 69
2.069477e-01 -1.878844e-01 -2.639421e+00 168 168 173
3.463945e-01 -2.095271e-01 -2.651296e+00 131 102 100
3.463945e-01 -2.095271e-01 -2.651296e+00 131 102 100
-5.493854e-02 -1.652729e-01 -2.701143e+00 49 59 84
6.967607e-02 -1.539276e-01 -2.621155e+00 180 183 188
3.144457e-01 -2.002079e-01 -2.735440e+00 172 167 158
3.041076e-01 -1.960020e-01 -2.736272e+00 180 174 165
3.005043e-01 -1.952461e-01 -2.736211e+00 191 184 178
-1.406684e-01 -1.294476e-01 -2.746029e+00 207 194 172
1.765868e-01 -1.239589e-01 -2.610362e+00 191 200 209
1.692172e-01 -1.194222e-01 -2.605597e+00 29 38 41
4.042281e-01 -1.847108e-01 -2.732734e+00 201 202 204
1.531223e-01 -1.178537e-01 -2.618030e+00 196 202 204
1.531223e-01 -1.178537e-01 -2.618030e+00 196 202 204
4.030827e-01 -1.840493e-01 -2.736621e+00 206 206 208
-6.592260e-02 -9.975888e-02 -2.712273e+00 172 163 148
1.090470e-01 -9.828015e-02 -2.625902e+00 141 139 137
2.218303e-01 -1.193020e-01 -2.649654e+00 155 158 167
6.706469e-02 -1.042340e-01 -2.714272e+00 202 199 190
6.549691e-02 -1.019237e-01 -2.713711e+00 187 183 182
2.504443e-01 -1.130906e-01 -2.652023e+00 89 90 93
2.504443e-01 -1.130906e-01 -2.652023e+00 89 90 93
3.944047e-01 -1.184492e-01 -2.746118e+00 192 189 193
4.012906e-01 -1.171359e-01 -2.743843e+00 200 195 189
4.074900e-01 -1.154021e-01 -2.743717e+00 195 190 184
4.112799e-01 -1.123623e-01 -2.743463e+00 78 75 77
4.667670e-01 -1.147600e-01 -2.726259e+00 215 182 176
4.444961e-01 -8.982977e-02 -2.752369e+00 43 25 18
4.398110e-01 -8.697192e-02 -2.748574e+00 91 85 89
4.415394e-01 -8.673217e-02 -2.751501e+00 42 41 41
4.325001e-01 -8.513391e-02 -2.749817e+00 73 77 77
3.781003e-01 -7.665172e-02 -2.748714e+00 178 168 156
4.407967e-01 -8.522312e-02 -2.753620e+00 44 43 48
4.588837e-01 -8.519155e-02 -2.746948e+00 30 30 9
4.341525e-01 -8.168089e-02 -2.748966e+00 81 79 82
4.330949e-01 -8.016792e-02 -2.747122e+00 81 80 83
5.976105e-01 -1.008168e-01 -2.751231e+00 80 68 64
5.976105e-01 -1.008168e-01 -2.751231e+00 80 68 64
5.875316e-01 -9.502785e-02 -2.749618e+00 54 50 50
4.277408e-01 -6.694200e-02 -2.753838e+00 73 74 75
4.276220e-01 -6.557489e-02 -2.748077e+00 73 74 75
4.128804e-01 -6.310288e-02 -2.752842e+00 48 48 48
3.756412e-01 -5.366282e-02 -2.719942e+00 187 188 182
4.677922e-01 -6.613141e-02 -2.749901e+00 32 28 6
4.677922e-01 -6.613141e-02 -2.749901e+00 32 28 6
5.659449e-01 -7.706532e-02 -2.750716e+00 200 181 170
4.249883e-01 -5.468345e-02 -2.751196e+00 156 152 147
5.700223e-01 -7.208900e-02 -2.752021e+00 195 178 158
4.022526e-01 -3.594924e-02 -2.748657e+00 165 169 171
4.022526e-01 -3.594924e-02 -2.748657e+00 165 169 171
4.566557e-01 -3.977866e-02 -2.750126e+00 174 169 163
6.272258e-01 -5.761415e-02 -2.753431e+00 75 58 44
6.327622e-01 -5.165040e-02 -2.755401e+00 57 43 25
4.805153e-01 -2.812018e-02 -2.756800e+00 32 29 2
4.492191e-01 -2.066531e-02 -2.755680e+00 165 161 158
4.771862e-01 -1.880379e-02 -2.753915e+00 78 82 46
4.154452e-01 -9.166536e-03 -2.755392e+00 183 188 188
1.208182e-01 4.568625e-02 -2.635198e+00 166 129 127
4.296930e-01 -8.311885e-03 -2.751106e+00 202 198 195
4.611831e-01 -1.104543e-02 -2.751246e+00 178 173 169
6.468427e-01 -2.349042e-02 -2.766490e+00 165 161 148
6.536575e-01 -1.670637e-02 -2.767297e+00 161 153 143
4.513671e-01 1.505628e-02 -2.759607e+00 176 172 169
3.414716e-01 3.395684e-02 -2.742867e+00 52 50 26
3.416004e-01 3.442715e-02 -2.741551e+00 52 50 26
2.452818e-02 9.688239e-02 -2.576909e+00 161 161 158
4.644884e-01 3.223179e-02 -2.755782e+00 191 181 172
2.784993e-01 6.145579e-02 -2.744942e+00 25 26 19
4.206362e-03 1.389414e-01 -2.583673e+00 191 194 193
4.502805e-01 6.941519e-02 -2.760338e+00 177 178 188
4.502971e-01 6.925119e-02 -2.761734e+00 177 178 188
3.436888e-01 8.465581e-02 -2.750437e+00 131 132 98
3.345093e-01 8.604261e-02 -2.753298e+00 120 122 101
-1.157297e-03 1.480491e-01 -2.585205e+00 139 141 141
3.121969e-01 1.005184e-01 -2.750422e+00 117 124 85
5.555957e-01 6.781543e-02 -2.623299e+00 218 218 198
2.661816e-01 1.157180e-01 -2.748593e+00 100 109 81
2.661816e-01 1.157180e-01 -2.748593e+00 100 109 81
4.550154e-01 9.918393e-02 -2.765425e+00 197 204 213
4.593588e-01 1.060995e-01 -2.768745e+00 183 187 186
5.302473e-01 9.636928e-02 -2.592442e+00 184 165 159
3.517228e-01 1.456169e-01 -2.763848e+00 24 29 16
-6.208844e-02 2.385365e-01 -2.782454e+00 104 97 96
3.937356e-01 1.523423e-01 -2.766248e+00 149 142 143
3.888594e-01 1.560276e-01 -2.772025e+00 180 174 184
5.889900e-01 1.218160e-01 -2.639323e+00 197 191 191
5.894413e-01 1.257362e-01 -2.638948e+00 189 184 181
2.174770e-01 1.883442e-01 -2.710438e+00 22 29 26
4.033145e-01 1.673210e-01 -2.771099e+00 197 193 190
6.194139e-01 1.362431e-01 -2.646585e+00 207 198 193
-4.864924e-02 2.749598e-01 -2.786853e+00 190 185 190
6.257243e-01 1.452700e-01 -2.650013e+00 218 204 204
3.618410e-01 1.974579e-01 -2.775046e+00 44 53 62
4.485524e-01 1.991780e-01 -2.768330e+00 194 194 189
4.427191e-01 2.051795e-01 -2.771456e+00 124 125 129
-6.547495e-02 3.064705e-01 -2.772877e+00 109 93 96
4.409166e-01 2.158786e-01 -2.772432e+00 108 108 115
3.759250e-01 2.411781e-01 -2.785490e+00 138 148 156
2.040534e-01 2.706168e-01 -2.778114e+00 104 112 86
1.125652e-01 2.889649e-01 -2.745134e+00 152 156 159
2.668411e-01 2.769356e-01 -2.776632e+00 82 81 85
3.976019e-01 2.586249e-01 -2.777301e+00 183 185 176
1.807199e-01 2.987460e-01 -2.782405e+00 40 30 20
9.833603e-02 3.226243e-01 -2.751946e+00 182 185 190
1.930492e-02 3.645845e-01 -2.808078e+00 171 160 159
3.215032e-01 2.965390e-01 -2.786089e+00 68 69 77
2.009085e-01 3.193924e-01 -2.786193e+00 199 202 191
2.041918e-01 3.208815e-01 -2.786605e+00 206 210 196
5.371511e-01 2.478943e-01 -2.682061e+00 166 165 161
4.490111e-01 2.919125e-01 -2.787668e+00 225 212 187
5.252262e-01 2.589868e-01 -2.680437e+00 185 184 182
3.931063e-01 3.033904e-01 -2.786786e+00 212 205 199
1.678550e-01 3.403342e-01 -2.764549e+00 160 155 153
8.957907e-02 3.577894e-01 -2.755686e+00 188 188 186
5.763798e-01 2.738556e-01 -2.693889e+00 173 173 175
1.483633e-01 3.652703e-01 -2.760825e+00 188 190 182
4.338003e-01 3.270494e-01 -2.797167e+00 214 207 199
4.341154e-01 3.268583e-01 -2.796635e+00 214 207 199
3.003633e-01 3.400180e-01 -2.764562e+00 172 187 181
3.261705e-01 3.433347e-01 -2.770124e+00 147 164 171
4.717026e-01 3.123939e-01 -2.720518e+00 60 70 79
4.196381e-01 3.464101e-01 -2.753679e+00 139 142 137
4.939910e-01 3.352144e-01 -2.732894e+00 68 69 118
4.569195e-01 3.659694e-01 -2.810200e+00 42 41 48
4.406810e-01 3.727024e-01 -2.810540e+00 50 49 56
4.406810e-01 3.727024e-01 -2.810540e+00 50 49 56
3.658861e-01 3.757950e-01 -2.781682e+00 45 43 51
3.658861e-01 3.757950e-01 -2.781682e+00 45 43 51
3.621756e-01 3.913134e-01 -2.802325e+00 126 122 115
4.589136e-01 3.867141e-01 -2.808428e+00 58 49 59
3.207179e-01 4.121299e-01 -2.811530e+00 184 186 177
2.352568e-01 4.404225e-01 -2.825077e+00 67 56 56
4.339561e-01 3.937450e-01 -2.773339e+00 20 21 17
4.392972e-01 3.978033e-01 -2.776640e+00 45 44 40
4.441736e-01 4.082869e-01 -2.776880e+00 156 148 143
2.853370e-01 4.652069e-01 -2.807146e+00 105 105 119
3.697291e-01 4.035079e-01 -2.682870e+00 198 162 173
1.983613e-01 -5.773644e-01 -2.680656e+00 198 156 114
9.449807e-02 -5.861621e-01 -2.707487e+00 149 144 138
1.206859e-01 -5.771868e-01 -2.709146e+00 186 180 174
7.065491e-02 -5.700482e-01 -2.706179e+00 181 180 165
1.370825e-01 -5.779092e-01 -2.712017e+00 176 169 160
3.148008e-01 -5.998375e-01 -2.720973e+00 30 31 19
3.182453e-01 -5.981679e-01 -2.720361e+00 181 179 150
3.171383e-01 -5.978762e-01 -2.723170e+00 23 25 15
3.291947e-01 -5.909818e-01 -2.711748e+00 214 205 198
2.925359e-01 -5.752354e-01 -2.725262e+00 96 94 73
4.106631e-01 -5.364213e-01 -2.675664e+00 154 149 153
2.604839e-01 -4.806142e-01 -2.632234e+00 71 84 94
3.619306e-01 -5.567487e-01 -2.729756e+00 188 170 169
-3.193175e-02 -4.522341e-01 -2.714914e+00 20 25 31
3.960012e-01 -4.623754e-01 -2.704838e+00 168 166 169
4.795136e-01 -4.960438e-01 -2.742408e+00 155 152 146
-1.324425e-01 -3.963376e-01 -2.714082e+00 65 72 56
4.061930e-01 -4.482089e-01 -2.701552e+00 188 192 195
4.344370e-01 -4.489240e-01 -2.708571e+00 40 49 59
3.899700e-01 -4.358531e-01 -2.701586e+00 180 189 191
-1.264851e-01 -3.787471e-01 -2.716317e+00 89 93 78
5.027643e-01 -4.732159e-01 -2.745107e+00 169 168 147
5.066955e-01 -4.715070e-01 -2.744146e+00 20 26 20
4.648107e-01 -4.452137e-01 -2.712570e+00 162 161 157
1.473448e-01 -3.904819e-01 -2.718623e+00 173 162 150
3.447398e-01 -3.490232e-01 -2.590472e+00 142 137 133
-3.027921e-02 -3.674335e-01 -2.719369e+00 49 43 56
8.573589e-02 -3.589570e-01 -2.690431e+00 212 205 201
2.734639e-01 -3.527101e-01 -2.638127e+00 168 161 153
2.734639e-01 -3.527101e-01 -2.638127e+00 168 161 153
2.814669e-01 -3.439300e-01 -2.640668e+00 196 189 180
4.962476e-01 -4.200459e-01 -2.723454e+00 179 179 181
4.833122e-01 -4.029348e-01 -2.720651e+00 160 161 165
8.134336e-02 -2.718466e-01 -2.654299e+00 167 164 157
2.860692e-01 -2.874272e-01 -2.643419e+00 254 255 253
-1.034498e-02 -2.527970e-01 -2.675228e+00 28 27 32
-1.197338e-01 -2.183248e-01 -2.647307e+00 200 203 198
-1.349408e-01 -2.164368e-01 -2.647961e+00 125 125 125
-1.349408e-01 -2.164368e-01 -2.647961e+00 125 125 125
2.017759e-01 -2.762685e-01 -2.725723e+00 184 174 173
3.243108e-01 -2.450493e-01 -2.639774e+00 41 49 70
1.038006e-01 -2.216646e-01 -2.660043e+00 190 183 175
-1.410770e-01 -1.889872e-01 -2.651201e+00 207 221 204
2.016248e-01 -1.983959e-01 -2.626676e+00 145 143 122
2.789546e-01 -2.339438e-01 -2.728392e+00 178 170 157
3.528592e-01 -2.104641e-01 -2.646958e+00 159 143 143
-6.256396e-02 -1.708587e-01 -2.697315e+00 75 84 98
6.238489e-02 -1.593770e-01 -2.622268e+00 28 33 39
-8.589941e-02 -1.577004e-01 -2.699206e+00 42 34 44
2.950724e-01 -2.131822e-01 -2.733654e+00 188 174 161
2.632895e-01 -2.075253e-01 -2.732004e+00 186 180 167
2.376195e-01 -1.695637e-01 -2.641989e+00 177 175 173
2.914434e-01 -1.970773e-01 -2.732539e+00 62 58 56
5.719664e-01 -2.357858e-01 -2.724514e+00 68 68 78
2.361813e-01 -1.356206e-01 -2.644877e+00 158 155 148
3.972281e-01 -1.769438e-01 -2.738439e+00 196 196 195
3.953284e-01 -1.753596e-01 -2.738467e+00 207 207 207
-6.382686e-02 -1.031905e-01 -2.713584e+00 165 154 148
4.809726e-01 -1.889774e-01 -2.746183e+00 142 130 115
2.356266e-01 -1.229110e-01 -2.652573e+00 190 193 193
5.951756e-02 -1.057257e-01 -2.715020e+00 43 39 37
5.951756e-02 -1.057257e-01 -2.715020e+00 43 39 37
2.275205e-01 -1.092833e-01 -2.652190e+00 161 159 163
3.962954e-01 -1.244597e-01 -2.747907e+00 96 87 88
3.959990e-01 -1.238109e-01 -2.743825e+00 96 87 88
3.761769e-01 -8.219906e-02 -2.743879e+00 134 124 117
5.466893e-01 -1.013502e-01 -2.744515e+00 188 175 163
4.587133e-01 -8.216877e-02 -2.741994e+00 165 160 137
5.236451e-01 -8.974730e-02 -2.744090e+00 157 148 140
6.109812e-02 2.768217e-02 -2.597658e+00 55 81 107
6.150900e-01 -6.618250e-02 -2.754631e+00 104 86 77
7.063620e-02 3.518605e-02 -2.598093e+00 167 182 206
4.058253e-01 -2.152833e-02 -2.751511e+00 213 219 220
4.062233e-01 -2.135793e-02 -2.750107e+00 213 219 220
3.767640e-01 -4.708623e-03 -2.737737e+00 126 128 89
5.790229e-01 -3.286697e-02 -2.755732e+00 178 170 159
4.831615e-01 -1.457103e-02 -2.755729e+00 26 26 4
4.824239e-01 -1.404860e-02 -2.746744e+00 26 26 4
3.772646e-01 7.476277e-03 -2.741714e+00 133 134 103
3.234052e-01 1.898178e-02 -2.738635e+00 94 98 67
6.268607e-03 8.813794e-02 -2.575750e+00 163 168 177
5.184455e-01 3.155871e-03 -2.721743e+00 199 181 152
4.672403e-01 1.058456e-02 -2.754558e+00 161 156 151
3.219739e-01 4.104440e-02 -2.750641e+00 29 35 24
-1.909749e-04 1.069745e-01 -2.577905e+00 136 137 140
4.472263e-01 3.022542e-02 -2.752483e+00 158 154 151
2.619197e-02 1.101628e-01 -2.578759e+00 139 139 137
3.711959e-01 5.279419e-02 -2.745798e+00 145 143 102
4.554752e-01 4.102565e-02 -2.755103e+00 194 191 186
-5.071151e-03 1.216946e-01 -2.580497e+00 173 173 174
2.818139e-01 7.240699e-02 -2.747299e+00 29 34 28
3.403695e-01 7.847456e-02 -2.760328e+00 47 50 28
4.511434e-01 6.743327e-02 -2.764011e+00 86 85 91
3.462282e-01 9.228449e-02 -2.756384e+00 144 142 103
2.398668e-01 1.079599e-01 -2.711068e+00 21 22 22
2.647362e-01 1.084494e-01 -2.747466e+00 34 40 26
4.134091e-01 1.250838e-01 -2.769328e+00 131 128 122
5.325389e-01 1.205813e-01 -2.743340e+00 41 34 29
5.325389e-01 1.205813e-01 -2.743340e+00 41 34 29
4.433000e-01 1.414038e-01 -2.769923e+00 216 212 209
-1.428230e-02 2.258681e-01 -2.775214e+00 22 27 31
-5.986070e-02 2.413943e-01 -2.781522e+00 205 197 184
5.452267e-01 1.342945e-01 -2.746770e+00 69 141 192
3.644072e-01 1.686439e-01 -2.768667e+00 52 57 67
3.613169e-01 2.242635e-01 -2.780222e+00 79 85 100
3.613169e-01 2.242635e-01 -2.780222e+00 79 85 100
5.276602e-01 1.915264e-01 -2.687475e+00 246 242 240
5.276566e-01 1.919551e-01 -2.686458e+00 246 242 240
3.764018e-01 2.305161e-01 -2.783300e+00 80 87 100
3.763211e-01 2.306408e-01 -2.784284e+00 80 87 100
3.591627e-01 2.350880e-01 -2.782925e+00 181 182 184
1.000053e-01 2.861660e-01 -2.741747e+00 41 47 53
4.236357e-01 2.420120e-01 -2.776010e+00 120 124 125
5.577703e-01 2.082074e-01 -2.680544e+00 178 176 174
3.800908e-01 2.509048e-01 -2.785932e+00 184 181 176
5.581536e-01 2.279139e-01 -2.684863e+00 165 167 166
5.276297e-01 2.377823e-01 -2.679367e+00 149 149 149
5.664972e-01 2.543770e-01 -2.689750e+00 187 187 188
5.405487e-01 2.555715e-01 -2.683053e+00 154 152 153
1.185494e-01 3.451173e-01 -2.754508e+00 116 122 113
