ply
format ascii 1.0
element face 0
property list uchar int vertex_indices
element vertex 921
property float x
property float y
property float z
property uchar diffuse_red
property uchar diffuse_green
property uchar diffuse_blue
end_header
3.550439e-01 8.647488e-02 -2.764585e+00 55 57 38
3.520532e-01 7.976369e-02 -2.766988e+00 69 65 46
9.486787e-01 5.643289e-02 -2.789929e+00 97 85 72
9.408757e-01 5.797545e-02 -2.800478e+00 247 237 231
9.391245e-01 5.744342e-02 -2.802718e+00 162 153 142
9.391245e-01 5.744342e-02 -2.802718e+00 162 153 142
9.319203e-01 4.908737e-02 -2.805031e+00 183 177 173
9.337395e-01 4.908629e-02 -2.804109e+00 91 85 86
9.372770e-01 4.820741e-02 -2.803376e+00 79 82 64
9.193662e-01 4.374984e-02 -2.801806e+00 179 181 172
7.064628e-01 3.529919e-02 -2.787287e+00 13 14 8
9.412525e-01 3.914625e-02 -2.798084e+00 40 44 47
6.363543e-01 3.393006e-02 -2.777366e+00 132 130 133
6.972365e-01 2.805095e-02 -2.781392e+00 192 190 169
6.131955e-01 2.577952e-02 -2.774901e+00 52 50 53
6.249210e-01 2.444554e-02 -2.771415e+00 189 178 184
9.175878e-01 2.463014e-02 -2.796792e+00 40 49 58
6.135959e-01 3.169381e-03 -2.771235e+00 196 187 178
9.697482e-01 -3.697142e-04 -2.784546e+00 36 46 40
9.229520e-01 -9.442207e-03 -2.790695e+00 195 194 173
9.794736e-01 -1.483330e-01 -2.764013e+00 182 181 169
8.302291e-01 -1.885084e-01 -2.744200e+00 162 154 143
9.017726e-01 -2.057318e-01 -2.763535e+00 122 114 99
9.018785e-01 -2.057599e-01 -2.763870e+00 122 114 99
9.659295e-01 -2.150671e-01 -2.727517e+00 168 155 160
8.827779e-01 -2.324014e-01 -2.754331e+00 86 83 70
-1.377450e-01 -1.831612e-01 -2.650400e+00 183 177 171
-1.401719e-01 -1.898815e-01 -2.651241e+00 188 200 179
8.783017e-01 -2.508933e-01 -2.740533e+00 245 251 252
1.005467e-01 -2.088836e-01 -2.659800e+00 188 59 91
8.617427e-01 -2.704019e-01 -2.747999e+00 242 236 216
-1.333721e-01 -2.177660e-01 -2.646797e+00 139 137 141
7.714152e-01 -2.785198e-01 -2.746993e+00 200 191 183
-1.276812e-01 -2.348059e-01 -2.643662e+00 194 194 199
5.111787e-02 -2.522878e-01 -2.654886e+00 64 57 69
4.898753e-02 -2.541980e-01 -2.656027e+00 61 56 68
-3.151362e-01 -2.606870e-01 -2.710109e+00 147 146 152
1.055895e+00 -3.170208e-01 -2.700128e+00 96 107 92
-1.605632e-01 -2.712389e-01 -2.640541e+00 43 48 75
-2.021684e-01 -2.753575e-01 -2.635439e+00 159 155 159
-1.687522e-01 -2.795707e-01 -2.639915e+00 46 47 74
-2.259646e-01 -2.792453e-01 -2.637879e+00 56 48 59
3.434577e-02 -2.910833e-01 -2.654261e+00 187 188 205
7.994830e-01 -3.262513e-01 -2.645823e+00 152 164 184
-7.442884e-01 -2.981205e-01 -2.762960e+00 145 134 141
9.476191e-01 -3.377918e-01 -2.652654e+00 171 176 154
2.961260e-01 -3.114428e-01 -2.648335e+00 181 177 173
8.037208e-01 -3.350104e-01 -2.646582e+00 185 194 220
9.695843e-01 -3.500514e-01 -2.627288e+00 153 150 168
-5.341407e-01 -3.427552e-01 -2.744799e+00 66 76 51
-7.991858e-02 -3.542610e-01 -2.716498e+00 19 29 5
-3.272747e-01 -3.419898e-01 -2.632322e+00 165 167 182
-9.883088e-02 -3.594841e-01 -2.714896e+00 91 88 80
-3.404590e-02 -3.648672e-01 -2.716440e+00 167 163 159
1.022264e+00 -3.992329e-01 -2.634404e+00 193 193 195
8.101895e-01 -4.071115e-01 -2.613890e+00 198 194 194
4.023422e-01 -4.191004e-01 -2.702718e+00 27 37 47
4.135249e-01 -4.213500e-01 -2.705839e+00 152 164 173
4.391324e-01 -4.304914e-01 -2.709694e+00 37 56 66
4.689376e-01 -4.497957e-01 -2.715995e+00 171 176 178
4.689376e-01 -4.497957e-01 -2.715995e+00 171 176 178
4.776335e-01 -4.547819e-01 -2.716802e+00 49 60 68
1.091689e+00 -4.988856e-01 -2.706603e+00 50 49 73
7.183372e-01 -4.434087e-01 -2.601600e+00 195 199 203
9.984016e-01 -4.752047e-01 -2.625519e+00 130 138 118
-1.296916e-01 -4.414124e-01 -2.473136e+00 219 222 238
6.571566e-01 -5.529454e-01 -2.738474e+00 155 161 161
-6.137657e-02 -4.965766e-01 -2.539358e+00 228 224 205
6.636047e-01 -5.668862e-01 -2.736150e+00 152 160 163
2.675739e-02 -5.444601e-01 -2.666777e+00 191 189 197
1.126269e+00 -6.063100e-01 -2.690105e+00 53 54 72
1.122729e+00 -6.064948e-01 -2.690377e+00 187 190 187
1.814634e-02 -5.594977e-01 -2.668629e+00 26 27 33
7.683885e-01 -5.960556e-01 -2.729601e+00 61 58 39
8.277032e-02 -5.826634e-01 -2.703285e+00 53 59 72
6.572145e-02 -5.861443e-01 -2.701158e+00 181 185 188
4.134151e-01 -5.384301e-01 -2.616143e+00 70 61 68
1.330256e+00 -6.644518e-01 -2.715068e+00 200 208 242
1.923602e-01 -5.729126e-01 -2.676653e+00 194 175 139
4.789179e-01 -5.430471e-01 -2.619357e+00 83 82 89
1.086256e+00 -6.403445e-01 -2.718359e+00 58 54 53
6.647548e-01 -6.075914e-01 -2.735462e+00 199 201 197
1.240023e-01 -5.962794e-01 -2.703311e+00 50 38 91
1.309214e+00 -6.841887e-01 -2.732762e+00 193 219 246
2.090422e-01 -6.015642e-01 -2.676599e+00 177 140 88
2.266263e-01 -6.050067e-01 -2.676902e+00 195 131 94
7.392353e-01 -6.464557e-01 -2.750831e+00 181 170 156
7.673364e-01 -6.408045e-01 -2.728313e+00 49 56 34
1.876353e-01 -6.107112e-01 -2.674548e+00 200 184 177
5.573787e-01 -5.868862e-01 -2.630917e+00 90 94 95
1.269947e+00 -7.157509e-01 -2.733110e+00 233 237 238
1.275558e+00 -7.129629e-01 -2.722512e+00 236 235 247
9.866300e-01 -6.910605e-01 -2.754704e+00 240 238 205
1.353214e+00 -7.219539e-01 -2.701628e+00 181 206 215
1.225240e+00 -7.411035e-01 -2.772035e+00 85 89 88
1.256295e+00 -7.394904e-01 -2.757482e+00 238 240 249
1.279972e+00 -7.169367e-01 -2.703450e+00 242 241 247
1.109995e+00 -7.071250e-01 -2.735601e+00 238 241 239
5.407219e-01 -6.069365e-01 -2.633897e+00 144 146 145
1.287440e+00 -7.147536e-01 -2.677826e+00 180 179 183
4.804176e-01 -6.014303e-01 -2.620835e+00 141 139 144
1.155665e+00 -7.444992e-01 -2.768605e+00 134 128 129
8.577411e-01 -6.902363e-01 -2.731961e+00 160 154 136
1.152746e+00 -7.531843e-01 -2.769025e+00 177 173 151
2.157583e-01 -6.568411e-01 -2.679945e+00 62 56 67
1.267324e+00 -7.404040e-01 -2.683289e+00 87 94 114
1.330036e+00 -7.495963e-01 -2.685717e+00 240 243 251
1.243961e+00 -7.490321e-01 -2.703791e+00 70 78 94
1.243961e+00 -7.490321e-01 -2.703791e+00 70 78 94
1.257890e+00 -7.481439e-01 -2.697906e+00 216 224 209
1.231643e+00 -7.759270e-01 -2.756355e+00 227 232 212
1.230884e+00 -7.796405e-01 -2.753669e+00 54 54 83
1.318610e+00 -7.644660e-01 -2.689252e+00 237 242 248
1.247875e+00 -7.853067e-01 -2.691413e+00 79 74 127
1.220485e+00 -7.969378e-01 -2.718102e+00 181 180 181
2.929350e-01 -6.766607e-01 -2.642329e+00 100 104 92
1.029630e-01 -7.093344e-01 -2.668125e+00 147 137 146
9.810192e-01 -7.723617e-01 -2.728515e+00 33 41 39
6.189356e-01 -6.943459e-01 -2.659692e+00 23 28 22
1.125177e+00 -8.240261e-01 -2.774429e+00 225 212 180
1.239629e+00 -7.847721e-01 -2.670286e+00 51 59 59
9.244397e-01 -7.857031e-01 -2.743257e+00 162 156 147
1.047480e+00 -8.184061e-01 -2.758696e+00 207 222 212
3.990795e-01 -7.022768e-01 -2.645302e+00 41 32 35
3.990795e-01 -7.022768e-01 -2.645302e+00 41 32 35
1.068738e+00 -8.282917e-01 -2.753648e+00 102 134 133
9.640078e-01 -8.017518e-01 -2.729911e+00 78 70 71
9.712724e-01 -8.048119e-01 -2.730449e+00 59 44 93
7.592158e-01 -7.866976e-01 -2.745092e+00 79 78 86
7.592158e-01 -7.866976e-01 -2.745092e+00 79 78 86
9.694858e-01 -8.059766e-01 -2.728860e+00 204 192 202
5.191647e-01 -7.078217e-01 -2.625764e+00 167 166 145
1.743361e-01 -7.067597e-01 -2.590570e+00 151 157 156
8.685390e-01 -8.233555e-01 -2.722084e+00 164 171 159
2.270926e-01 -7.201304e-01 -2.581797e+00 53 54 59
9.443983e-01 -8.581284e-01 -2.744716e+00 223 213 216
7.847088e-02 -7.751627e-01 -2.606202e+00 229 234 226
5.043286e-01 -7.658741e-01 -2.635732e+00 227 200 174
8.319849e-01 -8.496611e-01 -2.697641e+00 165 170 169
9.508728e-01 -9.238898e-01 -2.754606e+00 53 81 77
4.208523e-01 3.392277e-01 -2.755360e+00 122 123 121
5.740414e-01 2.883289e-01 -2.704035e+00 128 123 127
5.517213e-01 2.840243e-01 -2.698573e+00 127 127 129
4.976837e-01 2.696610e-01 -2.688333e+00 135 134 139
5.605746e-01 2.668670e-01 -2.700397e+00 137 135 136
5.176859e-01 2.568207e-01 -2.691613e+00 154 150 148
4.940381e-01 2.501420e-01 -2.686917e+00 137 135 138
1.110861e-01 3.549408e-01 -2.752992e+00 193 189 188
1.513389e-01 3.383512e-01 -2.760041e+00 163 169 173
4.058530e-01 3.038098e-01 -2.792981e+00 204 194 197
8.836995e-01 2.949474e-01 -2.814686e+00 137 121 95
9.124013e-02 3.437187e-01 -2.747303e+00 171 168 163
5.899102e-01 2.354211e-01 -2.700533e+00 192 198 205
1.914057e-01 3.124431e-01 -2.790390e+00 35 30 36
3.800926e-01 2.744409e-01 -2.785460e+00 84 93 77
1.863851e-01 3.097952e-01 -2.788130e+00 33 32 43
4.877327e-01 2.134101e-01 -2.683585e+00 127 125 130
5.267869e-01 1.914264e-01 -2.694905e+00 243 240 242
5.266624e-01 1.931884e-01 -2.701680e+00 243 240 242
4.430560e-01 2.200081e-01 -2.786783e+00 219 210 214
7.646444e-01 2.092521e-01 -2.810726e+00 179 175 163
1.011116e+00 2.134823e-01 -2.818421e+00 116 121 89
4.098120e-01 2.047526e-01 -2.791027e+00 190 174 188
4.097926e-01 2.040768e-01 -2.788228e+00 190 174 188
9.514660e-01 1.975426e-01 -2.822570e+00 184 177 168
4.095898e-01 1.905921e-01 -2.784104e+00 93 98 118
5.635998e-01 1.197036e-01 -2.642988e+00 211 194 196
4.932291e-01 1.635975e-01 -2.759518e+00 227 241 249
8.329746e-01 1.639131e-01 -2.792818e+00 41 43 43
1.043974e+00 1.677938e-01 -2.764362e+00 252 253 254
8.406177e-01 1.594599e-01 -2.791859e+00 172 170 162
5.003519e-01 1.407104e-01 -2.758153e+00 95 91 90
3.904980e-01 1.563620e-01 -2.779421e+00 155 144 149
3.312802e-01 1.590569e-01 -2.777344e+00 44 41 35
8.715115e-01 1.317045e-01 -2.805405e+00 129 122 114
3.240452e-01 1.308685e-01 -2.770079e+00 138 135 97
2.927055e-01 1.187254e-01 -2.769283e+00 98 105 72
9.445333e-01 8.475208e-02 -2.794953e+00 103 90 78
7.227329e-01 7.830087e-02 -2.787599e+00 37 40 47
3.292282e-01 8.657540e-02 -2.763673e+00 57 58 27
9.393606e-01 5.988734e-02 -2.802313e+00 160 151 144
5.823084e-01 1.454055e-02 -2.736965e+00 154 157 177
1.123121e+00 -2.549575e-02 -2.734387e+00 209 207 224
4.515752e-01 -9.980893e-02 -2.748233e+00 76 71 47
1.003133e+00 -1.979745e-01 -2.756645e+00 185 165 146
8.957374e-01 -1.995313e-01 -2.761943e+00 199 188 166
4.139598e-01 -1.935233e-01 -2.741853e+00 163 167 172
8.458646e-01 -2.158337e-01 -2.749566e+00 114 110 96
9.660543e-01 -2.188858e-01 -2.731656e+00 154 142 131
-4.746573e-02 -1.680353e-01 -2.702296e+00 165 168 179
8.884010e-01 -2.245929e-01 -2.755957e+00 166 163 159
8.899456e-01 -2.260409e-01 -2.759732e+00 166 163 159
9.738282e-01 -2.310284e-01 -2.726663e+00 177 168 181
8.751970e-01 -2.367914e-01 -2.758295e+00 197 197 185
-4.268265e-02 -1.903462e-01 -2.701447e+00 58 71 81
7.733569e-01 -2.583319e-01 -2.752605e+00 51 47 34
7.818482e-01 -2.603174e-01 -2.752311e+00 59 59 43
1.138130e-01 -2.272191e-01 -2.662241e+00 153 149 146
8.581408e-01 -2.742332e-01 -2.745490e+00 110 129 101
-1.203063e-01 -2.193342e-01 -2.649062e+00 206 212 191
1.069597e-01 -2.349454e-01 -2.661302e+00 154 149 146
-3.175127e-01 -2.162601e-01 -2.729747e+00 195 189 200
6.097085e-02 -2.389132e-01 -2.657508e+00 57 51 68
-3.335862e-01 -2.291999e-01 -2.716992e+00 121 122 123
7.121635e-01 -3.002503e-01 -2.737549e+00 183 180 163
-4.543229e-01 -2.460981e-01 -2.712449e+00 201 195 191
7.150589e-01 -3.071204e-01 -2.738439e+00 90 94 71
-2.111720e-01 -2.573041e-01 -2.639659e+00 188 180 202
-4.170333e-01 -2.644740e-01 -2.710522e+00 164 158 157
-4.512789e-01 -2.656042e-01 -2.707501e+00 119 112 118
-4.741199e-01 -2.723824e-01 -2.709082e+00 166 164 165
-4.010314e-01 -2.756200e-01 -2.710359e+00 126 122 123
-1.696892e-01 -2.820307e-01 -2.637787e+00 54 55 89
2.943602e-01 -3.089525e-01 -2.646388e+00 114 110 104
-1.725272e-01 -2.966470e-01 -2.634170e+00 47 54 66
9.067417e-01 -3.392772e-01 -2.655055e+00 167 166 171
-5.353263e-01 -3.395937e-01 -2.743408e+00 91 100 76
8.906969e-01 -3.890205e-01 -2.735793e+00 41 42 45
-1.486102e-01 -3.433997e-01 -2.633505e+00 38 40 56
-2.494836e-02 -3.617335e-01 -2.717211e+00 170 170 164
9.006132e-01 -3.840053e-01 -2.680337e+00 91 93 108
-1.038543e-01 -3.607880e-01 -2.714393e+00 30 30 34
9.010767e-02 -3.589744e-01 -2.690032e+00 202 180 174
1.078389e-01 -3.743586e-01 -2.716583e+00 119 115 110
1.082426e-01 -3.738780e-01 -2.715705e+00 119 115 110
4.557121e-01 -3.917592e-01 -2.715276e+00 152 157 163
1.146458e-01 -3.999123e-01 -2.716774e+00 126 115 113
4.765146e-01 -4.116883e-01 -2.720149e+00 30 33 47
1.101923e+00 -4.853839e-01 -2.709036e+00 59 62 91
4.530577e-01 -4.504954e-01 -2.711312e+00 39 49 58
4.527967e-01 -4.508872e-01 -2.712119e+00 39 49 58
9.964316e-01 -4.579168e-01 -2.625585e+00 206 207 203
1.096383e+00 -4.921592e-01 -2.708360e+00 78 80 114
2.367685e-01 -4.465552e-01 -2.630983e+00 23 27 39
2.367685e-01 -4.465552e-01 -2.630983e+00 23 27 39
3.758721e-01 -4.739616e-01 -2.703421e+00 186 192 191
7.912554e-01 -4.595687e-01 -2.607290e+00 176 163 154
-1.442560e-01 -4.466164e-01 -2.478801e+00 232 236 232
9.282500e-01 -5.822537e-01 -2.741990e+00 54 63 65
-6.788476e-02 -5.364991e-01 -2.647735e+00 49 57 68
4.478313e-01 -5.123631e-01 -2.619761e+00 151 137 125
5.162402e-01 -5.355527e-01 -2.625646e+00 165 163 152
9.759110e-01 -6.186087e-01 -2.723188e+00 136 181 186
5.334790e-01 -5.474617e-01 -2.630914e+00 138 137 141
4.242799e-01 -5.502696e-01 -2.618786e+00 172 174 173
4.372886e-01 -5.529249e-01 -2.618698e+00 140 140 140
4.614591e-01 -5.548279e-01 -2.622862e+00 177 179 178
1.084297e+00 -6.493079e-01 -2.716391e+00 241 245 205
9.286080e-01 -6.309556e-01 -2.719415e+00 143 138 135
4.450503e-02 -6.089246e-01 -2.696860e+00 159 152 147
7.282589e-01 -6.274827e-01 -2.745954e+00 176 171 154
1.473714e-01 -6.107274e-01 -2.707646e+00 133 91 88
6.717097e-01 -6.275349e-01 -2.736737e+00 192 192 192
6.717097e-01 -6.275349e-01 -2.736737e+00 192 192 192
1.443015e-01 -6.188732e-01 -2.704898e+00 254 249 252
5.118886e-01 -5.744254e-01 -2.628462e+00 177 178 180
7.040224e-01 -6.369000e-01 -2.741990e+00 157 158 158
2.215618e-01 -6.021638e-01 -2.676411e+00 208 133 101
2.221416e-01 -6.016136e-01 -2.675647e+00 208 133 101
5.451255e-01 -5.758894e-01 -2.628500e+00 135 126 122
6.478486e-02 -6.241910e-01 -2.699351e+00 169 164 167
2.708487e-02 -6.251689e-01 -2.693440e+00 41 39 50
1.407504e-01 -6.239920e-01 -2.708228e+00 119 88 117
1.278753e+00 -7.052081e-01 -2.722601e+00 193 192 208
8.311186e-02 -6.279441e-01 -2.698891e+00 180 179 182
1.224389e+00 -7.224767e-01 -2.775349e+00 192 188 200
2.568060e-02 -6.310523e-01 -2.694180e+00 58 56 72
5.080911e-01 -5.856160e-01 -2.627472e+00 145 147 146
5.100778e-01 -5.914017e-01 -2.628259e+00 181 181 181
1.079663e+00 -7.086778e-01 -2.759176e+00 186 194 187
4.836218e-01 -5.924830e-01 -2.625288e+00 158 159 162
1.281267e+00 -7.132297e-01 -2.702482e+00 241 247 245
7.896877e-02 -6.449051e-01 -2.698647e+00 170 169 174
2.683663e-02 -6.441951e-01 -2.685608e+00 206 205 204
1.284539e+00 -7.136743e-01 -2.694416e+00 240 246 253
1.062298e+00 -7.099157e-01 -2.755063e+00 68 82 91
1.286413e+00 -7.116105e-01 -2.686209e+00 149 158 152
5.491814e-01 -6.028581e-01 -2.633402e+00 175 173 173
6.680622e-01 -6.604776e-01 -2.734636e+00 169 170 172
9.910553e-01 -7.021328e-01 -2.754174e+00 231 227 215
1.012714e-01 -6.526911e-01 -2.701306e+00 180 176 173
5.134534e-01 -6.017235e-01 -2.628178e+00 205 205 205
5.096464e-01 -6.033327e-01 -2.628475e+00 194 195 194
1.275395e+00 -7.249917e-01 -2.702841e+00 240 239 238
1.236038e+00 -7.552939e-01 -2.770571e+00 84 84 73
1.274515e+00 -7.263181e-01 -2.699179e+00 86 83 126
3.745181e-02 -6.642592e-01 -2.691583e+00 33 36 54
1.275552e+00 -7.280487e-01 -2.691580e+00 236 244 252
1.270335e+00 -7.328456e-01 -2.701362e+00 241 242 242
5.466505e-01 -6.165233e-01 -2.630808e+00 149 138 134
6.528576e-02 -6.676087e-01 -2.694270e+00 160 159 167
5.961679e-01 -6.673713e-01 -2.721645e+00 32 38 50
1.231161e+00 -7.672148e-01 -2.764573e+00 74 73 65
1.270075e+00 -7.361006e-01 -2.690464e+00 249 253 255
1.320006e+00 -7.455429e-01 -2.694845e+00 187 188 172
9.805991e-01 -7.293748e-01 -2.754209e+00 40 37 30
1.327653e+00 -7.491135e-01 -2.691305e+00 241 249 246
1.254621e+00 -7.483344e-01 -2.702221e+00 85 92 131
5.024463e-01 -6.249704e-01 -2.626350e+00 168 169 172
1.333005e+00 -7.488783e-01 -2.684810e+00 112 118 152
1.979033e-01 -6.379084e-01 -2.631811e+00 188 192 177
1.338525e+00 -7.511795e-01 -2.680952e+00 182 189 186
1.338525e+00 -7.511795e-01 -2.680952e+00 182 189 186
1.261800e+00 -7.475999e-01 -2.688220e+00 197 199 211
2.101330e-01 -6.424160e-01 -2.630917e+00 175 180 159
1.243878e+00 -7.629336e-01 -2.713200e+00 237 241 250
1.245790e+00 -7.615328e-01 -2.710414e+00 66 73 98
-3.954107e-04 -6.928027e-01 -2.676022e+00 43 37 59
1.322707e+00 -7.618812e-01 -2.683497e+00 236 247 250
1.236919e+00 -7.717196e-01 -2.720537e+00 97 100 129
3.443935e-01 -6.470755e-01 -2.638443e+00 34 29 21
4.566704e-01 -6.330404e-01 -2.617070e+00 151 139 136
2.304040e-01 -6.573847e-01 -2.635097e+00 93 93 110
1.037806e+00 -7.726609e-01 -2.761649e+00 204 214 207
9.396483e-01 -7.586563e-01 -2.752026e+00 126 115 94
3.985203e-01 -6.678618e-01 -2.648213e+00 164 164 166
1.034667e+00 -7.823991e-01 -2.762913e+00 87 94 103
1.242857e+00 -7.810963e-01 -2.696642e+00 195 198 192
1.312298e+00 -7.785895e-01 -2.676664e+00 98 102 137
1.041582e+00 -7.845822e-01 -2.760170e+00 127 148 147
4.506208e-01 -6.536542e-01 -2.618984e+00 189 181 176
4.624634e-01 -6.555598e-01 -2.618658e+00 185 185 188
2.817492e-01 -6.721502e-01 -2.634637e+00 27 31 43
1.215908e+00 -7.972151e-01 -2.717647e+00 204 205 198
1.809846e-01 -6.650533e-01 -2.605021e+00 228 231 207
6.443434e-01 -6.895458e-01 -2.662144e+00 104 108 91
9.783434e-01 -7.729342e-01 -2.728338e+00 229 234 210
4.094310e-01 -6.872811e-01 -2.649684e+00 188 184 183
1.124753e+00 -8.280160e-01 -2.775087e+00 92 63 103
1.419598e-01 -6.915454e-01 -2.617530e+00 155 157 147
1.048438e+00 -8.104155e-01 -2.757223e+00 215 218 216
5.238187e-01 -6.813090e-01 -2.629590e+00 117 117 125
5.140377e-01 -6.804865e-01 -2.625450e+00 143 130 130
9.642275e-01 -7.876959e-01 -2.729026e+00 39 38 52
9.725237e-01 -7.896436e-01 -2.726359e+00 221 221 224
4.601280e-01 -6.860719e-01 -2.619253e+00 147 153 143
4.674454e-01 -6.887845e-01 -2.620586e+00 149 149 151
9.308311e-01 -7.908693e-01 -2.727453e+00 146 155 151
4.182790e-01 -7.013107e-01 -2.637551e+00 128 125 122
4.646264e-01 -6.892119e-01 -2.619248e+00 178 181 175
4.784417e-01 -6.897129e-01 -2.620503e+00 154 164 171
5.940946e-01 -7.041704e-01 -2.639171e+00 22 24 21
9.084297e-01 -7.973745e-01 -2.726601e+00 185 189 193
5.097901e-01 -7.017017e-01 -2.624320e+00 171 161 164
4.473537e-01 -6.980526e-01 -2.616372e+00 31 29 51
5.085204e-01 -7.044010e-01 -2.623417e+00 35 27 48
7.621277e-01 -7.961110e-01 -2.740227e+00 117 121 122
7.991249e-01 -7.984392e-01 -2.733355e+00 139 130 122
8.859263e-01 -8.164972e-01 -2.728605e+00 187 184 178
4.133437e-01 -7.329101e-01 -2.627913e+00 116 113 104
1.049429e+00 -8.828871e-01 -2.765774e+00 207 228 218
5.752171e-01 -7.507905e-01 -2.635930e+00 156 160 168
9.305926e-01 -8.674582e-01 -2.750676e+00 232 221 219
8.576073e-01 -8.322131e-01 -2.708649e+00 107 114 107
8.647863e-01 -8.344464e-01 -2.710080e+00 189 188 179
1.066377e-01 -7.805739e-01 -2.612406e+00 201 202 186
2.122353e-01 -7.469404e-01 -2.581795e+00 143 142 147
4.822218e-01 -7.755969e-01 -2.629300e+00 240 215 187
1.039940e+00 -9.292930e-01 -2.755162e+00 198 210 180
3.123139e-01 -8.133944e-01 -2.663748e+00 157 165 167
5.737919e-01 -7.864470e-01 -2.634209e+00 203 199 198
7.431265e-01 -8.760550e-01 -2.731379e+00 167 172 176
3.861365e-01 -7.835367e-01 -2.619494e+00 204 196 188
8.221020e-01 -8.996116e-01 -2.749708e+00 114 104 92
5.030417e-01 -7.939311e-01 -2.635218e+00 159 154 147
1.018729e-01 -8.079015e-01 -2.607994e+00 170 167 141
3.532773e-01 -7.821263e-01 -2.610941e+00 239 234 224
7.493312e-02 -8.122540e-01 -2.605652e+00 154 152 161
1.420356e-01 -7.839115e-01 -2.579823e+00 29 33 53
8.721777e-01 -8.849457e-01 -2.711198e+00 167 167 173
3.118714e-01 -8.259061e-01 -2.661920e+00 71 79 81
3.118714e-01 -8.259061e-01 -2.661920e+00 71 79 81
3.184798e-01 -8.263606e-01 -2.659067e+00 159 173 173
9.501548e-01 -9.335137e-01 -2.747441e+00 52 66 100
4.944240e-01 2.677330e-01 -2.688759e+00 135 134 139
4.795857e-01 2.602157e-01 -2.684730e+00 145 142 147
4.821144e-01 2.456383e-01 -2.675313e+00 160 159 157
4.971351e-01 2.411332e-01 -2.686598e+00 147 146 150
5.897173e-01 2.413589e-01 -2.703375e+00 170 173 159
3.218023e-01 2.913166e-01 -2.796321e+00 33 30 54
3.185443e-01 2.882610e-01 -2.792421e+00 80 78 95
7.971141e-01 2.619220e-01 -2.816999e+00 157 148 141
8.207516e-02 3.159154e-01 -2.745157e+00 162 163 163
1.493161e-01 3.063890e-01 -2.767520e+00 76 74 75
1.164849e-01 2.896568e-01 -2.745639e+00 164 170 171
5.192673e-01 1.950792e-01 -2.691750e+00 159 158 159
1.051365e-01 2.838784e-01 -2.743199e+00 179 182 187
1.856811e-01 2.621231e-01 -2.776847e+00 77 92 58
1.011320e+00 2.097639e-01 -2.836018e+00 164 132 126
8.595633e-01 1.824436e-01 -2.801733e+00 179 168 130
1.045226e+00 1.718826e-01 -2.755469e+00 147 146 152
3.704034e-01 1.898529e-01 -2.785261e+00 214 205 206
4.225345e-01 1.785603e-01 -2.776709e+00 111 105 118
4.225345e-01 1.785603e-01 -2.776709e+00 111 105 118
3.689093e-01 1.852007e-01 -2.780542e+00 57 59 59
4.213132e-01 1.752649e-01 -2.784548e+00 226 218 215
4.225378e-01 1.732478e-01 -2.777803e+00 226 218 215
3.980445e-01 1.684400e-01 -2.776536e+00 67 65 77
7.984486e-01 1.406327e-01 -2.805199e+00 31 31 39
3.379588e-01 1.591972e-01 -2.778085e+00 30 27 28
4.878315e-01 1.290819e-01 -2.753759e+00 134 105 98
1.107897e+00 1.257537e-01 -2.762297e+00 129 136 141
9.585411e-01 1.222446e-01 -2.799900e+00 34 28 30
4.546206e-01 1.233402e-01 -2.784564e+00 198 193 189
3.001466e-01 1.363757e-01 -2.772464e+00 101 103 64
9.616004e-01 1.108527e-01 -2.798055e+00 145 151 115
3.632551e-01 1.150796e-01 -2.773322e+00 110 107 72
4.360231e-01 1.015531e-01 -2.777485e+00 95 98 99
2.750645e-01 1.013551e-01 -2.762573e+00 60 67 49
6.415609e-01 6.210874e-02 -2.781384e+00 50 54 62
1.021445e+00 4.695795e-02 -2.799373e+00 153 142 112
6.883481e-01 6.328438e-03 -2.781926e+00 150 144 132
2.261506e-01 -1.257114e-01 -2.653998e+00 183 182 183
9.460820e-01 -1.758535e-01 -2.727124e+00 153 150 142
9.460820e-01 -1.758535e-01 -2.727124e+00 153 150 142
9.953529e-01 -1.763612e-01 -2.761741e+00 176 164 154
8.836638e-01 -1.760845e-01 -2.760399e+00 85 92 77
8.330576e-01 -1.857835e-01 -2.744706e+00 56 51 42
-2.881896e-02 -1.350033e-01 -2.709264e+00 179 173 173
-1.007439e-01 -1.795840e-01 -2.698180e+00 55 59 70
-3.269386e-01 -1.637064e-01 -2.736225e+00 196 193 194
-5.010877e-02 -1.933282e-01 -2.696710e+00 55 62 72
8.772497e-01 -2.485321e-01 -2.753666e+00 74 83 61
8.762660e-01 -2.480133e-01 -2.750661e+00 74 83 61
7.790902e-01 -2.484638e-01 -2.754585e+00 23 24 22
-1.371699e-01 -1.908562e-01 -2.652211e+00 57 60 75
-1.442397e-01 -2.038699e-01 -2.651722e+00 146 135 143
7.786480e-01 -2.623659e-01 -2.751424e+00 64 56 57
7.633401e-01 -2.704748e-01 -2.746040e+00 210 218 168
-1.461429e-01 -2.157181e-01 -2.646485e+00 190 190 192
-1.221856e-01 -2.191235e-01 -2.645097e+00 137 136 142
8.605682e-01 -3.022881e-01 -2.727233e+00 53 61 48
-4.501130e-01 -2.429674e-01 -2.713113e+00 129 131 130
-2.421636e-02 -2.620998e-01 -2.666023e+00 155 136 138
6.954752e-01 -3.041266e-01 -2.732207e+00 183 173 164
-1.975320e-01 -2.552970e-01 -2.639899e+00 178 176 181
-1.567978e-01 -2.677284e-01 -2.641145e+00 16 18 31
6.899403e-01 -3.231168e-01 -2.730194e+00 174 167 153
5.168450e-01 -3.266724e-01 -2.734327e+00 148 156 162
5.168450e-01 -3.266724e-01 -2.734327e+00 148 156 162
-1.667297e-01 -2.933238e-01 -2.635758e+00 174 185 191
9.873658e-01 -3.398085e-01 -2.632329e+00 178 180 178
-1.309515e-01 -3.192890e-01 -2.665042e+00 23 23 34
-2.434522e-01 -3.311758e-01 -2.625079e+00 41 40 46
1.394603e-01 -3.629710e-01 -2.719392e+00 161 150 155
-2.901727e-01 -3.554638e-01 -2.631580e+00 167 166 171
7.284616e-01 -3.753940e-01 -2.608023e+00 119 124 119
-2.819640e-01 -3.729417e-01 -2.630016e+00 77 73 107
6.868994e-01 -3.844203e-01 -2.598087e+00 203 203 200
8.334562e-01 -4.146097e-01 -2.612841e+00 141 120 120
-1.421033e-01 -4.213623e-01 -2.697384e+00 19 18 23
3.450441e-01 -3.973909e-01 -2.600324e+00 187 183 181
8.721176e-01 -4.351377e-01 -2.628782e+00 161 140 132
7.925724e-01 -4.564425e-01 -2.606366e+00 145 130 123
-9.668437e-02 -4.597354e-01 -2.563269e+00 68 65 72
-5.547215e-02 -5.142225e-01 -2.691053e+00 32 31 38
-6.382585e-02 -4.976227e-01 -2.537776e+00 51 46 79
7.929109e-02 -5.389802e-01 -2.669877e+00 119 120 124
1.176803e-01 -5.531321e-01 -2.707709e+00 186 178 175
2.736835e-01 -5.592693e-01 -2.720587e+00 34 35 26
9.515152e-01 -5.985311e-01 -2.724949e+00 193 198 202
2.862465e-01 -5.708512e-01 -2.722389e+00 112 96 80
1.099762e-01 -5.737039e-01 -2.704788e+00 157 152 149
-1.076721e-01 -5.276726e-01 -2.542590e+00 192 189 195
1.167608e-01 -5.847809e-01 -2.704952e+00 187 183 180
4.806541e-01 -5.442786e-01 -2.623909e+00 39 46 57
1.521244e-01 -5.940338e-01 -2.709024e+00 180 161 152
4.275995e-01 -5.496680e-01 -2.617701e+00 145 146 150
5.345911e-02 -6.012190e-01 -2.699905e+00 158 153 150
5.371984e-02 -6.007339e-01 -2.698617e+00 158 153 150
-1.117813e-01 -5.990209e-01 -2.601924e+00 249 249 247
-1.117813e-01 -5.990209e-01 -2.601924e+00 249 249 247
8.126464e-02 -6.248147e-01 -2.698972e+00 119 116 122
6.682952e-02 -6.336703e-01 -2.697689e+00 159 159 166
7.943225e-02 -6.354294e-01 -2.697974e+00 169 169 171
7.419949e-01 -6.581886e-01 -2.749008e+00 171 163 157
2.720891e-02 -6.390890e-01 -2.686403e+00 24 17 52
1.270826e+00 -7.193028e-01 -2.721247e+00 246 253 255
1.270826e+00 -7.193028e-01 -2.721247e+00 246 253 255
4.729195e-01 -5.965653e-01 -2.623758e+00 141 142 146
1.266330e+00 -7.273625e-01 -2.720414e+00 241 246 251
6.714760e-01 -6.628420e-01 -2.735115e+00 73 75 86
6.807495e-01 -6.627441e-01 -2.735169e+00 164 167 175
1.154676e+00 -7.400270e-01 -2.776034e+00 176 174 152
1.261567e+00 -7.352409e-01 -2.719005e+00 245 248 255
1.273570e+00 -7.310996e-01 -2.694833e+00 134 139 145
1.232118e+00 -7.641344e-01 -2.770541e+00 55 57 54
5.006880e-01 -6.117819e-01 -2.624218e+00 142 143 145
4.838473e-01 -6.131166e-01 -2.625009e+00 148 149 152
1.324858e+00 -7.419725e-01 -2.696574e+00 198 199 178
1.233974e+00 -7.660934e-01 -2.764218e+00 176 178 155
4.616821e-01 -6.137571e-01 -2.618354e+00 155 155 159
3.912859e-02 -6.750019e-01 -2.691862e+00 70 70 93
2.528192e-02 -6.780407e-01 -2.690729e+00 48 55 71
1.229595e+00 -7.765387e-01 -2.759735e+00 61 74 69
3.375923e-02 -6.851973e-01 -2.690346e+00 65 66 87
2.405378e-01 -6.667880e-01 -2.681809e+00 69 69 79
2.408446e-01 -6.660302e-01 -2.680716e+00 69 69 79
2.134673e-01 -6.440632e-01 -2.631244e+00 170 175 155
2.256939e-01 -6.518051e-01 -2.634772e+00 202 205 183
1.319625e+00 -7.644946e-01 -2.686314e+00 51 52 119
1.239607e+00 -7.696109e-01 -2.712361e+00 236 245 249
2.708912e-01 -6.656662e-01 -2.663637e+00 27 30 40
5.916068e-01 -6.946044e-01 -2.714914e+00 135 132 123
2.749342e-01 -6.696851e-01 -2.661762e+00 23 25 33
1.237667e+00 -7.759271e-01 -2.708959e+00 73 80 112
2.709971e-01 -6.677705e-01 -2.652260e+00 28 31 40
1.234564e+00 -7.773929e-01 -2.710862e+00 248 252 255
1.234564e+00 -7.773929e-01 -2.710862e+00 248 252 255
2.759308e-01 -6.688314e-01 -2.653549e+00 28 31 40
1.233840e+00 -7.799850e-01 -2.707191e+00 67 75 119
1.132439e+00 -8.008193e-01 -2.775957e+00 50 51 52
4.620129e-01 -6.497742e-01 -2.621295e+00 156 156 155
1.232875e+00 -7.835060e-01 -2.707713e+00 57 76 115
9.352501e-01 -7.583107e-01 -2.749598e+00 211 196 173
1.229920e+00 -7.855327e-01 -2.710063e+00 236 244 254
1.338970e+00 -7.842825e-01 -2.683863e+00 64 66 105
4.546684e-01 -6.512998e-01 -2.618247e+00 29 30 51
3.021691e-01 -6.826658e-01 -2.664376e+00 27 30 38
8.527171e-01 -7.405503e-01 -2.730408e+00 35 30 27
5.556149e-01 -7.069462e-01 -2.708532e+00 164 164 157
5.090947e-01 -6.592554e-01 -2.625635e+00 191 188 183
3.074314e-01 -6.842685e-01 -2.660395e+00 31 35 40
4.135541e-01 -6.819166e-01 -2.650185e+00 185 183 183
9.404700e-01 -7.759187e-01 -2.747581e+00 156 154 142
4.898645e-01 -6.702971e-01 -2.621495e+00 134 135 140
1.333843e+00 -8.052283e-01 -2.683784e+00 161 158 179
3.595194e-01 -6.924324e-01 -2.640786e+00 42 43 62
3.273867e-02 -7.479430e-01 -2.686265e+00 153 147 119
6.530167e-01 -6.975281e-01 -2.634141e+00 35 38 30
4.716390e-01 -6.900205e-01 -2.621850e+00 119 122 126
8.040794e-01 -7.919330e-01 -2.741578e+00 34 28 32
8.040794e-01 -7.919330e-01 -2.741578e+00 34 28 32
1.016351e+00 -8.613915e-01 -2.759848e+00 112 118 105
9.690435e-01 -8.560184e-01 -2.746697e+00 25 33 52
5.335006e-01 -7.389483e-01 -2.634324e+00 179 178 174
9.859549e-01 -8.643103e-01 -2.744903e+00 24 31 39
8.673259e-01 -8.309579e-01 -2.713411e+00 112 55 67
2.536415e-01 -7.336176e-01 -2.592809e+00 155 167 151
8.319278e-01 -8.391215e-01 -2.727626e+00 41 50 40
8.337876e-01 -8.435693e-01 -2.733014e+00 41 50 40
2.653575e-01 -7.397528e-01 -2.598114e+00 153 152 157
9.168257e-01 -8.660662e-01 -2.739144e+00 37 38 33
2.889977e-01 -8.025695e-01 -2.682563e+00 44 57 72
5.213991e-01 -7.623429e-01 -2.635987e+00 178 169 166
3.534651e-01 -7.524313e-01 -2.612861e+00 54 54 54
3.515278e-01 -7.508128e-01 -2.609108e+00 193 190 190
3.557608e-01 -7.549684e-01 -2.613662e+00 216 214 197
3.609294e-01 -7.582313e-01 -2.618392e+00 175 167 153
6.945126e-02 -7.830685e-01 -2.606060e+00 127 148 193
4.980336e-01 -7.735276e-01 -2.632562e+00 59 45 44
3.539358e-01 -7.651009e-01 -2.613142e+00 194 193 196
4.732813e-01 -7.831702e-01 -2.628849e+00 211 196 191
3.138691e-01 -8.159104e-01 -2.662077e+00 100 104 113
2.460283e-01 -7.739209e-01 -2.593534e+00 116 117 121
5.015438e-01 -7.915457e-01 -2.636881e+00 39 40 45
5.976502e-01 2.870140e-01 -2.704520e+00 141 139 140
5.391321e-01 2.764716e-01 -2.695113e+00 174 170 169
9.014663e-01 3.363953e-01 -2.821329e+00 166 153 121
5.765261e-01 2.605045e-01 -2.701242e+00 145 144 140
6.780810e-01 2.843432e-01 -2.757075e+00 249 247 235
8.741082e-01 3.034802e-01 -2.812024e+00 167 159 122
8.502097e-01 2.731059e-01 -2.803651e+00 175 160 139
3.116430e-01 3.046445e-01 -2.798006e+00 185 178 179
2.096668e-01 3.147994e-01 -2.785415e+00 43 42 43
1.043494e+00 2.635286e-01 -2.781449e+00 253 252 247
7.809016e-01 2.598932e-01 -2.823509e+00 62 63 64
7.809335e-01 2.546860e-01 -2.820884e+00 171 167 156
3.556122e-01 2.650304e-01 -2.797941e+00 190 186 183
3.556122e-01 2.650304e-01 -2.797941e+00 190 186 183
3.964019e-01 2.536773e-01 -2.788094e+00 109 109 115
7.705752e-01 2.355678e-01 -2.813073e+00 117 112 110
4.957712e-01 1.933446e-01 -2.692676e+00 142 140 145
7.773783e-01 2.307808e-01 -2.815676e+00 169 161 147
4.965419e-01 1.864381e-01 -2.693868e+00 147 142 149
3.720125e-01 2.418593e-01 -2.792366e+00 79 91 98
8.565565e-01 2.180571e-01 -2.801109e+00 156 153 96
4.388638e-01 2.255657e-01 -2.784893e+00 211 208 194
3.884483e-01 2.238938e-01 -2.791618e+00 68 80 94
4.478177e-01 2.129496e-01 -2.786454e+00 213 210 203
3.618218e-01 2.181208e-01 -2.789962e+00 71 81 93
4.465120e-01 1.974792e-01 -2.778174e+00 132 132 134
8.468720e-01 1.884647e-01 -2.795364e+00 176 172 125
8.468720e-01 1.884647e-01 -2.795364e+00 176 172 125
3.712705e-01 1.957678e-01 -2.785940e+00 78 84 97
4.360757e-01 1.722898e-01 -2.779027e+00 164 158 158
4.180829e-01 1.693692e-01 -2.785006e+00 220 215 210
3.325133e-01 1.648402e-01 -2.777475e+00 35 35 31
4.118041e-01 1.453189e-01 -2.780713e+00 189 184 175
3.504808e-01 1.408570e-01 -2.776413e+00 129 132 94
4.322118e-01 1.270337e-01 -2.777728e+00 202 199 194
2.546133e-01 1.122356e-01 -2.763387e+00 70 78 55
3.347548e-01 7.739520e-02 -2.762128e+00 128 125 92
3.252665e-01 4.385878e-02 -2.756055e+00 93 97 71
6.573219e-01 -9.205532e-03 -2.771292e+00 195 189 176
9.835319e-01 -1.635605e-01 -2.756885e+00 194 185 176
9.835319e-01 -1.635605e-01 -2.756885e+00 194 185 176
1.168676e+00 -2.105540e-01 -2.712318e+00 186 156 158
-9.288496e-02 -1.582668e-01 -2.698952e+00 67 73 89
8.947524e-01 -2.200973e-01 -2.764119e+00 192 185 166
-6.420203e-02 -1.777925e-01 -2.700067e+00 38 40 53
1.156826e+00 -2.356126e-01 -2.708959e+00 188 160 157
1.128661e+00 -2.370049e-01 -2.707066e+00 193 163 167
8.834604e-01 -2.387187e-01 -2.753684e+00 117 117 96
-9.257321e-02 -1.861062e-01 -2.697403e+00 48 53 64
8.728376e-01 -2.409514e-01 -2.752662e+00 194 186 160
8.671893e-02 -2.157513e-01 -2.674294e+00 163 26 67
8.657078e-01 -2.737046e-01 -2.749115e+00 83 96 68
7.495471e-01 -2.920363e-01 -2.742338e+00 172 163 153
6.894912e-01 -2.994407e-01 -2.730813e+00 172 164 151
7.305174e-01 -3.070437e-01 -2.740189e+00 110 114 83
-8.215620e-01 -2.409797e-01 -2.759296e+00 21 25 37
-8.185492e-01 -2.482992e-01 -2.753695e+00 29 33 44
-4.204137e-01 -2.621397e-01 -2.708317e+00 74 94 92
-4.204137e-01 -2.621397e-01 -2.708317e+00 74 94 92
9.317136e-02 -2.906409e-01 -2.653735e+00 197 193 190
-8.311276e-02 -2.985268e-01 -2.717126e+00 49 49 56
-1.736618e-01 -2.887402e-01 -2.636978e+00 117 128 139
-1.735548e-01 -2.890786e-01 -2.636697e+00 117 128 139
5.516358e-01 -3.340356e-01 -2.737927e+00 156 155 160
-1.123000e-01 -3.048384e-01 -2.649953e+00 67 68 88
-1.314339e-01 -3.156746e-01 -2.665462e+00 71 70 87
-6.011533e-01 -3.332774e-01 -2.750321e+00 71 62 63
1.179869e+00 -3.820536e-01 -2.689784e+00 200 206 203
4.089221e-01 -3.363140e-01 -2.608391e+00 50 55 61
4.089221e-01 -3.363140e-01 -2.608391e+00 50 55 61
-2.354019e-01 -3.692225e-01 -2.634007e+00 195 194 185
1.199484e-01 -3.894352e-01 -2.716931e+00 167 156 157
-1.317048e-01 -4.240294e-01 -2.678748e+00 23 22 22
1.088223e+00 -5.095006e-01 -2.681924e+00 233 230 232
4.962685e-01 -4.908286e-01 -2.742380e+00 168 168 149
-1.087812e-01 -4.427909e-01 -2.522554e+00 32 23 35
-1.187350e-02 -5.007396e-01 -2.710073e+00 25 25 35
-3.520929e-02 -5.214051e-01 -2.703269e+00 18 21 26
5.534463e-02 -5.095016e-01 -2.672916e+00 47 50 62
6.430521e-01 -5.441106e-01 -2.736571e+00 74 84 93
1.143108e+00 -5.910273e-01 -2.699003e+00 165 166 154
2.727639e-01 -5.548309e-01 -2.720686e+00 118 113 94
1.297570e-01 -5.636276e-01 -2.710510e+00 169 162 157
-8.286285e-02 -5.420534e-01 -2.619636e+00 202 206 183
-8.289165e-02 -5.406429e-01 -2.619153e+00 202 206 183
2.992991e-01 -5.640317e-01 -2.723346e+00 113 106 80
7.366895e-02 -5.714297e-01 -2.700949e+00 155 157 144
5.180261e-01 -5.341832e-01 -2.627972e+00 33 32 45
6.338075e-02 -5.788194e-01 -2.702329e+00 60 61 73
-8.508016e-02 -5.337074e-01 -2.537009e+00 189 189 193
1.326800e+00 -6.797469e-01 -2.746210e+00 62 78 109
1.492053e-01 -6.021137e-01 -2.710439e+00 54 38 48
1.498790e-01 -6.016515e-01 -2.709022e+00 54 38 48
4.599822e-01 -5.701285e-01 -2.619032e+00 141 143 142
5.325042e-01 -5.781189e-01 -2.630262e+00 153 153 153
4.695341e-01 -5.732251e-01 -2.619922e+00 179 179 181
1.224191e+00 -7.193468e-01 -2.774346e+00 182 180 192
7.413611e-01 -6.508547e-01 -2.749491e+00 166 157 139
2.864022e-01 -6.230721e-01 -2.701065e+00 180 192 186
2.844855e-02 -6.369694e-01 -2.690082e+00 179 181 168
1.762177e-01 -6.194409e-01 -2.674229e+00 175 170 168
1.725430e-01 -6.213663e-01 -2.673846e+00 62 55 64
1.725430e-01 -6.213663e-01 -2.673846e+00 62 55 64
1.733562e-01 -6.202580e-01 -2.671910e+00 62 55 64
1.215706e+00 -7.365820e-01 -2.769167e+00 70 74 84
1.269735e+00 -7.217467e-01 -2.715769e+00 73 77 112
1.269735e+00 -7.217467e-01 -2.715769e+00 73 77 112
5.500828e-02 -6.492770e-01 -2.694659e+00 62 62 79
5.500828e-02 -6.492770e-01 -2.694659e+00 62 62 79
1.254697e+00 -7.419163e-01 -2.751998e+00 57 66 88
1.151125e+00 -7.384135e-01 -2.778553e+00 147 141 127
5.047336e-01 -6.024282e-01 -2.625173e+00 192 194 192
6.748039e-01 -6.671869e-01 -2.735769e+00 165 168 169
3.921479e-01 -6.163990e-01 -2.646394e+00 146 146 146
5.315063e-01 -6.100318e-01 -2.629698e+00 164 164 166
4.863362e-01 -6.059555e-01 -2.622024e+00 154 154 155
4.614189e-02 -6.675158e-01 -2.694658e+00 73 71 87
2.062554e-01 -6.524575e-01 -2.680644e+00 50 60 69
1.257415e+00 -7.451095e-01 -2.714318e+00 67 79 105
1.243307e+00 -7.643209e-01 -2.749662e+00 71 78 91
1.252151e+00 -7.459096e-01 -2.703388e+00 204 207 192
1.237696e+00 -7.688938e-01 -2.747127e+00 44 50 73
1.327187e+00 -7.520205e-01 -2.688734e+00 56 55 123
9.461217e-01 -7.307418e-01 -2.751655e+00 105 96 81
2.429992e-01 -6.695982e-01 -2.687718e+00 17 17 25
3.784793e-01 -6.452965e-01 -2.649300e+00 165 167 167
5.209431e-01 -6.388767e-01 -2.625809e+00 46 44 50
1.906611e-01 -6.585577e-01 -2.632147e+00 33 39 51
2.881429e-01 -6.761610e-01 -2.669237e+00 30 32 39
5.996988e-01 -7.041564e-01 -2.716904e+00 182 176 186
1.232327e+00 -7.801291e-01 -2.699835e+00 209 220 210
5.773046e-01 -7.072149e-01 -2.710940e+00 155 154 153
5.695351e-01 -7.088031e-01 -2.707695e+00 136 114 92
1.225149e+00 -7.954676e-01 -2.706036e+00 80 93 123
4.858404e-01 -6.665380e-01 -2.620963e+00 195 195 182
5.100116e-01 -6.684498e-01 -2.625778e+00 176 171 167
4.078715e-01 -6.947381e-01 -2.649408e+00 182 176 176
1.148835e+00 -8.533761e-01 -2.766643e+00 172 163 134
6.483497e-01 -7.024247e-01 -2.629233e+00 23 28 22
9.035722e-01 -7.983089e-01 -2.738039e+00 96 91 73
2.606919e-01 -7.021732e-01 -2.605042e+00 127 127 132
5.224093e-01 -7.074782e-01 -2.625940e+00 153 152 147
2.755820e-01 -7.038249e-01 -2.602482e+00 109 110 115
1.053964e+00 -8.611395e-01 -2.764598e+00 60 62 85
4.126029e-01 -7.303350e-01 -2.636296e+00 61 65 74
9.332135e-01 -8.653468e-01 -2.745036e+00 101 86 88
9.332135e-01 -8.653468e-01 -2.745036e+00 101 86 88
8.073078e-02 -7.743232e-01 -2.608125e+00 45 40 60
8.073078e-02 -7.743232e-01 -2.608125e+00 45 40 60
1.030453e+00 -9.048819e-01 -2.764426e+00 248 248 234
3.585909e-01 -7.577343e-01 -2.614917e+00 59 49 57
3.585909e-01 -7.577343e-01 -2.614917e+00 59 49 57
5.385284e-01 -7.754108e-01 -2.640619e+00 217 194 180
4.942857e-01 -7.816861e-01 -2.633312e+00 51 37 48
1.022078e+00 -9.258444e-01 -2.751164e+00 27 40 74
5.392944e-01 2.792154e-01 -2.687961e+00 139 138 135
3.478646e-01 3.161649e-01 -2.775982e+00 43 41 46
1.375905e-01 3.478866e-01 -2.756183e+00 27 27 40
1.375905e-01 3.478866e-01 -2.756183e+00 27 27 40
2.040217e-01 3.313928e-01 -2.763720e+00 160 159 154
8.553100e-01 2.836486e-01 -2.813691e+00 56 52 45
5.245343e-01 2.230663e-01 -2.688838e+00 163 158 164
3.396040e-01 2.956050e-01 -2.796809e+00 50 46 62
1.057457e+00 2.722837e-01 -2.780861e+00 128 120 114
4.934792e-01 2.090441e-01 -2.688883e+00 115 113 118
4.996797e-01 2.018953e-01 -2.692927e+00 117 118 122
1.687251e-01 2.938047e-01 -2.784839e+00 149 134 128
4.066836e-01 2.510321e-01 -2.785118e+00 135 135 135
4.123994e-01 2.509142e-01 -2.785905e+00 204 203 193
3.648675e-01 2.558293e-01 -2.796002e+00 187 184 177
4.283946e-01 2.428369e-01 -2.787191e+00 141 140 145
3.697951e-01 2.514030e-01 -2.795574e+00 89 92 97
4.099855e-01 2.307741e-01 -2.780612e+00 126 128 130
1.808311e-01 2.616053e-01 -2.779365e+00 29 35 28
3.709567e-01 1.748893e-01 -2.780814e+00 67 71 83
5.733646e-01 9.160338e-02 -2.646593e+00 107 102 114
1.029703e+00 1.447313e-01 -2.809669e+00 117 111 111
8.659417e-01 1.173047e-01 -2.807067e+00 173 168 163
3.958281e-01 1.217262e-01 -2.772503e+00 67 66 71
9.787642e-01 9.654490e-02 -2.796274e+00 164 149 120
7.326931e-01 7.356774e-02 -2.779111e+00 225 224 221
5.192445e-01 4.318504e-02 -2.741616e+00 246 235 181
9.398450e-01 4.666367e-02 -2.799163e+00 198 197 168
9.410833e-01 4.722591e-02 -2.802583e+00 198 197 168
1.394778e+00 -1.269840e-01 -2.850779e+00 128 124 113
9.657343e-01 -1.439825e-01 -2.754634e+00 66 69 72
9.774652e-01 -1.451276e-01 -2.764079e+00 79 80 85
1.042072e+00 -1.513808e-01 -2.772954e+00 164 159 127
8.817303e-01 -1.806058e-01 -2.759029e+00 159 157 136
9.926621e-01 -1.846387e-01 -2.760289e+00 178 168 158
8.335509e-01 -2.086593e-01 -2.743113e+00 28 26 25
1.067795e+00 -2.147141e-01 -2.746585e+00 78 72 89
1.020165e+00 -2.210283e-01 -2.758973e+00 41 52 42
-5.453462e-02 -1.748035e-01 -2.701124e+00 62 73 95
1.169100e+00 -2.314267e-01 -2.714072e+00 183 151 153
1.169100e+00 -2.314267e-01 -2.714072e+00 183 151 153
-1.028470e-01 -1.748425e-01 -2.699308e+00 37 41 52
8.872549e-01 -2.331864e-01 -2.755228e+00 95 102 79
-8.530960e-02 -1.877000e-01 -2.694677e+00 27 30 39
-9.329104e-02 -1.946112e-01 -2.695705e+00 22 24 36
-9.329104e-02 -1.946112e-01 -2.695705e+00 22 24 36
1.130845e+00 -2.518890e-01 -2.707483e+00 178 147 149
1.161789e+00 -2.593483e-01 -2.709967e+00 178 147 143
7.499289e-01 -2.658776e-01 -2.742849e+00 55 67 46
-4.033862e-01 -2.147509e-01 -2.717735e+00 185 182 176
-8.029675e-02 -2.528604e-01 -2.673263e+00 63 64 70
-3.188340e-01 -2.529275e-01 -2.717589e+00 108 112 106
1.940491e-01 -2.868308e-01 -2.726374e+00 187 176 170
-3.188215e-01 -2.612245e-01 -2.691938e+00 69 66 61
5.544052e-02 -2.744668e-01 -2.654603e+00 168 163 164
3.149072e-01 -2.918111e-01 -2.650295e+00 165 160 154
1.915152e-01 -3.068336e-01 -2.727107e+00 170 157 148
-1.664033e-01 -2.892258e-01 -2.637863e+00 47 52 82
-1.126807e-01 -2.961205e-01 -2.663807e+00 22 24 48
5.601137e-02 -3.091561e-01 -2.639935e+00 157 141 133
9.312752e-01 -3.490481e-01 -2.659140e+00 191 182 173
9.342690e-01 -3.504516e-01 -2.655108e+00 135 124 108
2.188951e-01 -3.410073e-01 -2.627568e+00 186 187 192
3.979908e-01 -3.428618e-01 -2.603523e+00 26 36 42
1.060133e-01 -3.700889e-01 -2.716741e+00 172 168 160
-3.941194e-02 -3.697972e-01 -2.713663e+00 44 47 52
-1.718739e-01 -3.697846e-01 -2.626989e+00 26 25 33
-1.723172e-01 -3.759366e-01 -2.630557e+00 199 192 181
1.007000e-01 -4.211110e-01 -2.672759e+00 49 56 66
-1.283268e-01 -4.336807e-01 -2.678316e+00 49 42 44
3.077055e-01 -4.130795e-01 -2.595818e+00 119 117 118
4.865014e-01 -5.133665e-01 -2.743782e+00 37 40 45
-8.466429e-02 -4.762012e-01 -2.574078e+00 26 23 29
-8.796154e-02 -4.664004e-01 -2.537297e+00 94 88 98
-4.939853e-02 -5.225199e-01 -2.694826e+00 35 38 46
9.524394e-01 -5.886433e-01 -2.728082e+00 162 170 175
3.095033e-01 -5.656056e-01 -2.724895e+00 120 109 84
8.404018e-02 -5.747099e-01 -2.703965e+00 55 59 82
1.553001e-01 -5.793830e-01 -2.711589e+00 167 144 141
1.211879e+00 -6.508640e-01 -2.738582e+00 36 41 41
4.191847e-01 -5.384735e-01 -2.616523e+00 31 34 43
5.342901e-01 -5.526629e-01 -2.632672e+00 141 142 139
-9.144172e-02 -5.405788e-01 -2.531081e+00 201 201 189
5.297963e-01 -5.553150e-01 -2.631335e+00 142 139 135
1.311436e+00 -6.768202e-01 -2.726204e+00 96 126 170
1.225779e-01 -5.986299e-01 -2.703861e+00 60 21 50
1.438989e-01 -6.034037e-01 -2.704313e+00 46 39 52
5.047549e-01 -5.649071e-01 -2.625027e+00 172 172 171
2.704288e-01 -6.029425e-01 -2.699681e+00 76 82 89
2.902344e-02 -6.156642e-01 -2.694904e+00 48 45 58
2.067724e-01 -6.036760e-01 -2.678018e+00 156 137 115
4.249981e-01 -5.709341e-01 -2.616410e+00 165 166 169
5.373246e-01 -5.808781e-01 -2.631267e+00 132 134 131
5.372799e-01 -5.810813e-01 -2.631529e+00 132 134 131
1.280492e+00 -7.044934e-01 -2.711972e+00 204 208 183
1.279583e+00 -7.107762e-01 -2.720630e+00 71 77 106
1.279583e+00 -7.107762e-01 -2.720630e+00 71 77 106
2.830079e-01 -6.273558e-01 -2.699104e+00 20 28 41
1.165654e+00 -7.238543e-01 -2.769217e+00 122 115 98
1.275827e+00 -7.174559e-01 -2.719968e+00 82 89 113
1.274956e+00 -7.114752e-01 -2.709254e+00 202 206 180
4.481950e-01 -5.869361e-01 -2.618781e+00 175 175 177
1.268766e+00 -7.254155e-01 -2.729115e+00 92 96 127
5.194394e-01 -5.960021e-01 -2.626723e+00 200 199 197
6.033288e-01 -6.467568e-01 -2.721588e+00 55 58 65
6.862994e-01 -6.653261e-01 -2.739010e+00 51 63 84
1.263303e+00 -7.334674e-01 -2.726475e+00 90 92 112
5.171639e-01 -6.019806e-01 -2.626108e+00 151 152 156
5.168571e-01 -6.036669e-01 -2.629020e+00 151 152 156
5.168571e-01 -6.036669e-01 -2.629020e+00 151 152 156
1.265831e+00 -7.232636e-01 -2.705160e+00 198 201 181
-2.330953e-03 -6.468548e-01 -2.663059e+00 73 71 78
2.736818e-01 -6.457263e-01 -2.698325e+00 26 24 29
1.197102e-01 -6.626185e-01 -2.700329e+00 53 51 64
1.262647e+00 -7.404324e-01 -2.717175e+00 74 88 113
9.693461e-01 -7.179151e-01 -2.755594e+00 66 62 60
5.442637e-02 -6.705242e-01 -2.692888e+00 181 182 185
1.086368e+00 -7.403777e-01 -2.751545e+00 201 223 226
5.098382e-01 -6.230724e-01 -2.628264e+00 118 119 124
1.265377e+00 -7.453081e-01 -2.684833e+00 93 100 136
1.139989e+00 -7.726439e-01 -2.771490e+00 187 180 162
4.968871e-01 -6.322187e-01 -2.625993e+00 134 135 137
3.854996e-01 -6.502379e-01 -2.647114e+00 145 145 147
5.297893e-01 -6.425759e-01 -2.629954e+00 136 136 132
1.121020e+00 -7.813080e-01 -2.769219e+00 172 169 152
1.237181e+00 -7.756312e-01 -2.719410e+00 94 109 134
1.230296e+00 -7.813680e-01 -2.714914e+00 93 101 124
2.730390e-01 -6.659654e-01 -2.643062e+00 26 27 32
2.811540e-01 -6.704534e-01 -2.644574e+00 20 23 28
1.247916e+00 -7.790418e-01 -2.693216e+00 205 208 211
2.659079e-01 -6.713312e-01 -2.639050e+00 138 141 131
2.884996e-01 -6.765753e-01 -2.649083e+00 25 30 33
1.241466e+00 -7.849591e-01 -2.690588e+00 216 221 217
1.223119e+00 -7.842155e-01 -2.692483e+00 192 201 193
5.009402e-01 -6.623398e-01 -2.623833e+00 173 173 171
4.485126e-02 -7.297005e-01 -2.689078e+00 171 164 149
4.631625e-01 -6.620760e-01 -2.618148e+00 160 164 167
8.742075e-01 -7.597924e-01 -2.728264e+00 123 118 111
9.495307e-01 -7.747616e-01 -2.736114e+00 169 174 177
4.857395e-01 -6.722629e-01 -2.621916e+00 133 134 135
2.761871e-01 -6.721499e-01 -2.601863e+00 105 106 110
3.646274e-01 -6.959541e-01 -2.643900e+00 155 154 160
3.795600e-01 -6.973550e-01 -2.646759e+00 168 163 167
1.236760e+00 -7.958683e-01 -2.667259e+00 193 199 195
3.981093e-01 -7.098638e-01 -2.647023e+00 135 132 126
8.937978e-01 -7.978891e-01 -2.738628e+00 63 58 50
4.834707e-01 -7.017628e-01 -2.621458e+00 124 130 120
4.833885e-01 -7.021478e-01 -2.621881e+00 124 130 120
4.930120e-01 -7.060277e-01 -2.621420e+00 54 47 56
6.504657e-01 -7.144069e-01 -2.622351e+00 18 18 20
7.975431e-01 -8.275108e-01 -2.751391e+00 141 131 119
1.052279e+00 -8.783277e-01 -2.765487e+00 61 79 90
8.637942e-01 -8.231527e-01 -2.722426e+00 48 53 46
2.327851e-01 -7.212708e-01 -2.588456e+00 45 33 37
7.936912e-02 -7.578480e-01 -2.610088e+00 51 51 69
2.354882e-01 -7.248367e-01 -2.586084e+00 123 127 128
5.155102e-01 -7.549347e-01 -2.634249e+00 43 40 41
5.736200e-01 -7.647621e-01 -2.636067e+00 237 232 223
8.395533e-01 -8.455779e-01 -2.712429e+00 140 142 141
1.050914e+00 -9.163102e-01 -2.757651e+00 28 35 45
5.032762e-01 -7.674732e-01 -2.630932e+00 41 39 53
5.032762e-01 -7.674732e-01 -2.630932e+00 41 39 53
5.731023e-01 -7.801643e-01 -2.643386e+00 170 167 169
1.139460e-01 -7.846751e-01 -2.607534e+00 53 46 63
1.765193e-01 -7.636985e-01 -2.582024e+00 155 154 159
4.852687e-01 -7.814358e-01 -2.632495e+00 35 36 41
8.505165e-01 -8.622445e-01 -2.702836e+00 90 84 88
8.465823e-01 -8.698889e-01 -2.703818e+00 170 173 178
3.158498e-01 -8.289061e-01 -2.663956e+00 138 152 152
1.771336e-01 3.688242e-01 -2.765936e+00 57 60 77
6.069283e-01 2.728349e-01 -2.710743e+00 130 125 129
2.187059e-01 3.477431e-01 -2.762423e+00 140 163 193
1.299403e-01 3.488011e-01 -2.748738e+00 174 175 169
4.034972e-01 2.449037e-01 -2.782101e+00 123 121 118
5.201936e-01 1.903406e-01 -2.696669e+00 118 117 114
1.644620e-01 2.787271e-01 -2.781187e+00 35 35 31
4.295136e-01 2.349328e-01 -2.785904e+00 205 205 197
3.689213e-01 2.237574e-01 -2.786471e+00 73 86 101
3.933675e-01 2.166300e-01 -2.787147e+00 65 72 92
9.428574e-01 1.814280e-01 -2.810950e+00 68 77 76
9.428574e-01 1.814280e-01 -2.810950e+00 68 77 76
3.679940e-01 1.817302e-01 -2.781007e+00 66 67 72
4.468229e-01 1.233946e-01 -2.775613e+00 200 196 190
2.853866e-01 1.167437e-01 -2.765277e+00 34 43 27
2.856112e-01 1.165859e-01 -2.764840e+00 34 43 27
9.254263e-01 9.447085e-02 -2.801598e+00 189 185 176
2.849418e-01 1.036227e-01 -2.755421e+00 73 84 54
4.131490e-01 7.838681e-02 -2.728617e+00 34 39 35
4.994110e-01 6.400184e-02 -2.727771e+00 50 45 33
1.002267e+00 -1.575834e-01 -2.762264e+00 188 179 170
1.000945e+00 -1.738652e-01 -2.761448e+00 185 175 164
1.011559e+00 -1.880977e-01 -2.754347e+00 132 115 98
8.891208e-01 -1.904851e-01 -2.761756e+00 156 146 129
3.450270e-01 -1.916442e-01 -2.736234e+00 191 180 168
1.136553e+00 -2.497261e-01 -2.704993e+00 185 153 154
8.661032e-01 -2.562682e-01 -2.749761e+00 129 148 119
8.877433e-01 -2.582886e-01 -2.696622e+00 220 208 186
9.794356e-02 -2.397094e-01 -2.666113e+00 64 63 73
-3.576954e-01 -2.205508e-01 -2.722445e+00 38 35 45
-3.576954e-01 -2.205508e-01 -2.722445e+00 38 35 45
1.142182e-01 -2.646921e-01 -2.661178e+00 160 157 154
3.124864e-01 -2.795566e-01 -2.652069e+00 98 89 83
-4.980181e-01 -2.708678e-01 -2.710028e+00 166 158 164
2.749900e-01 -2.997176e-01 -2.642501e+00 22 25 31
7.889617e-01 -3.286224e-01 -2.643680e+00 46 75 96
-5.022375e-02 -3.675475e-01 -2.714254e+00 166 153 145
1.102597e-01 -3.933080e-01 -2.716885e+00 52 55 62
-1.292994e-01 -4.000026e-01 -2.708099e+00 43 52 31
4.424814e-01 -4.083571e-01 -2.711803e+00 71 72 76
4.424814e-01 -4.083571e-01 -2.711803e+00 71 72 76
