ply
format ascii 1.0
element face 0
property list uchar int vertex_indices
element vertex 927
property float x
property float y
property float z
property uchar diffuse_red
property uchar diffuse_green
property uchar diffuse_blue
end_header
7.982703e-01 2.561469e-01 -2.829618e+00 168 159 149
5.360099e-01 2.258749e-01 -2.679678e+00 62 65 74
5.123384e-01 2.112265e-01 -2.684726e+00 125 123 126
6.617508e-01 1.870722e-01 -2.622168e+00 35 31 29
9.768689e-01 2.301214e-01 -2.838457e+00 192 185 177
9.586092e-01 2.170982e-01 -2.831862e+00 184 178 162
3.550138e-01 2.204450e-01 -2.788870e+00 78 89 95
-6.531390e-02 2.293685e-01 -2.604931e+00 150 146 145
-2.879257e-02 2.061187e-01 -2.590934e+00 88 86 95
-2.392308e-02 1.925519e-01 -2.595492e+00 140 136 138
-2.592677e-02 1.929180e-01 -2.598075e+00 140 136 138
9.971891e-01 1.576407e-01 -2.824652e+00 175 162 130
2.168458e-01 1.120192e-01 -2.721090e+00 18 22 21
1.035999e+00 6.345157e-02 -2.817724e+00 149 146 115
-5.567442e-02 1.026008e-01 -2.584965e+00 160 155 159
8.611355e-01 5.051092e-02 -2.790845e+00 165 166 155
9.374175e-01 4.667119e-02 -2.808752e+00 81 78 73
-4.937155e-01 1.394549e-01 -2.725852e+00 206 198 207
1.088404e+00 3.166923e-02 -2.817461e+00 195 190 93
-4.815618e-01 1.250567e-01 -2.723495e+00 165 160 166
-3.543844e-01 6.898781e-02 -2.708475e+00 54 48 58
-6.076156e-03 3.085033e-02 -2.559502e+00 32 43 57
-3.676073e-01 5.557867e-02 -2.732875e+00 51 38 38
1.250365e-01 -1.873007e-03 -2.630092e+00 36 27 42
-4.740613e-01 1.739292e-02 -2.696385e+00 172 166 170
-3.731028e-02 -1.897140e-02 -2.588436e+00 44 53 65
-3.738302e-02 -2.074402e-02 -2.607289e+00 32 39 49
7.934483e-01 -5.790547e-02 -2.659118e+00 202 202 207
-3.878069e-01 -1.957914e-02 -2.738318e+00 54 59 89
-7.926332e-02 -2.817232e-02 -2.560995e+00 187 183 174
-8.367424e-02 -3.558594e-02 -2.561914e+00 45 41 57
-8.367424e-02 -3.558594e-02 -2.561914e+00 45 41 57
9.335164e-01 -1.034309e-01 -2.739303e+00 116 127 95
1.402672e+00 -1.366184e-01 -2.859825e+00 186 182 171
-3.772312e-01 -7.837863e-02 -2.742389e+00 106 104 110
8.799997e-01 -1.282122e-01 -2.728838e+00 30 36 45
9.718641e-01 -1.517726e-01 -2.762239e+00 179 170 151
1.043626e+00 -1.655476e-01 -2.771467e+00 197 189 177
1.126883e+00 -1.805166e-01 -2.784283e+00 233 235 236
5.214621e-01 -1.558545e-01 -2.659336e+00 36 40 33
1.071340e+00 -2.063096e-01 -2.771560e+00 129 120 115
-4.717763e-02 -1.755089e-01 -2.702374e+00 51 57 80
-7.165250e-02 -2.098171e-01 -2.696601e+00 44 48 57
8.705658e-01 -2.346977e-01 -2.755301e+00 59 57 52
1.447538e+00 -2.867534e-01 -2.845899e+00 167 152 157
9.626279e-01 -2.462158e-01 -2.668518e+00 232 226 224
1.417919e+00 -3.630950e-01 -2.829554e+00 212 192 185
3.282417e-01 -2.692470e-01 -2.656285e+00 189 181 176
6.342828e-01 -2.822224e-01 -2.693335e+00 182 110 120
7.523418e-01 -3.055684e-01 -2.743733e+00 201 198 182
7.523418e-01 -3.055684e-01 -2.743733e+00 201 198 182
-1.536657e-01 -2.930551e-01 -2.644762e+00 20 21 26
1.796214e-01 -3.066913e-01 -2.725539e+00 184 171 165
7.464217e-01 -3.151404e-01 -2.741473e+00 164 150 125
9.906566e-01 -3.032879e-01 -2.671394e+00 240 236 240
1.212511e+00 -3.356088e-01 -2.710256e+00 109 109 136
7.410862e-01 -3.170433e-01 -2.740660e+00 170 150 128
1.408203e+00 -4.006522e-01 -2.825050e+00 205 184 180
8.625562e-01 -3.321652e-01 -2.736547e+00 47 51 48
1.205537e+00 -3.637723e-01 -2.720588e+00 219 224 219
1.199648e+00 -3.777779e-01 -2.717436e+00 71 81 99
6.660678e-01 -3.467657e-01 -2.725533e+00 167 162 148
6.425602e-01 -3.477664e-01 -2.720037e+00 190 185 165
2.774334e-01 -3.280429e-01 -2.648797e+00 174 169 165
5.587088e-01 -3.651143e-01 -2.737563e+00 151 151 153
1.302584e+00 -4.613997e-01 -2.768784e+00 129 138 102
-2.125668e-02 -4.126899e-01 -2.708057e+00 32 34 46
1.094217e-01 -4.291180e-01 -2.680266e+00 40 39 43
1.014404e-01 -4.312163e-01 -2.681944e+00 82 85 72
2.900324e-01 -4.044220e-01 -2.606869e+00 120 119 118
-1.434195e-01 -4.319290e-01 -2.522719e+00 37 39 53
3.051239e-01 -4.190034e-01 -2.607293e+00 125 121 125
5.796244e-01 -5.230668e-01 -2.728856e+00 81 79 84
4.212747e-01 -5.240578e-01 -2.709736e+00 130 123 116
1.415916e-01 -5.516655e-01 -2.707351e+00 168 158 149
7.346292e-02 -5.587999e-01 -2.695669e+00 36 39 45
4.023206e-01 -5.392256e-01 -2.708857e+00 65 62 58
3.309225e-01 -5.599771e-01 -2.729668e+00 146 135 113
4.020686e-01 -5.398521e-01 -2.687538e+00 204 197 192
3.597747e-01 -5.661118e-01 -2.721648e+00 169 160 142
3.981598e-01 -5.434276e-01 -2.677145e+00 204 200 188
2.817516e-01 -5.849820e-01 -2.710214e+00 22 25 27
2.239052e-01 -5.770593e-01 -2.669439e+00 196 138 94
9.581091e-01 -6.214538e-01 -2.724340e+00 184 192 199
2.547870e-01 -6.012181e-01 -2.695101e+00 47 70 94
4.330268e-01 -5.486051e-01 -2.623459e+00 146 146 148
5.376930e-01 -5.727085e-01 -2.632787e+00 147 137 128
4.165897e-01 -5.654714e-01 -2.614013e+00 38 39 53
8.908474e-01 -6.666688e-01 -2.725548e+00 100 90 95
5.165837e-01 -5.809686e-01 -2.624716e+00 167 169 163
4.221832e-01 4.632821e-01 -2.756114e+00 38 39 49
8.264143e-01 4.906308e-01 -2.867413e+00 29 30 39
4.337431e-01 4.689273e-01 -2.796754e+00 41 46 52
9.803278e-01 4.620752e-01 -2.819588e+00 32 35 40
4.985376e-01 3.733467e-01 -2.720491e+00 122 120 125
5.649624e-01 3.739415e-01 -2.733752e+00 122 116 120
4.057864e-01 3.638260e-01 -2.752103e+00 54 54 54
9.748525e-01 3.939884e-01 -2.861691e+00 171 158 125
8.835451e-01 3.547330e-01 -2.837726e+00 157 159 166
5.375619e-01 3.019069e-01 -2.691957e+00 156 151 157
6.389588e-02 3.665512e-01 -2.761014e+00 160 154 154
9.647464e-01 2.960970e-01 -2.839085e+00 191 176 150
-9.963187e-02 3.615883e-01 -2.732907e+00 180 171 170
9.578909e-01 2.837690e-01 -2.838946e+00 186 172 143
1.330578e-01 3.022022e-01 -2.749440e+00 156 163 167
4.767355e-01 2.318565e-01 -2.673604e+00 42 48 59
5.082308e-01 2.327258e-01 -2.683367e+00 108 107 112
9.943906e-01 2.695949e-01 -2.846636e+00 181 175 163
9.358332e-01 2.481234e-01 -2.827554e+00 186 170 136
9.997580e-01 2.538584e-01 -2.845449e+00 132 124 114
9.941372e-01 2.367605e-01 -2.838671e+00 196 189 181
7.758291e-01 1.939607e-01 -2.815887e+00 31 33 38
-3.751971e-02 2.572861e-01 -2.786740e+00 27 31 32
1.032446e+00 1.990145e-01 -2.832793e+00 126 89 90
-4.751224e-02 2.529796e-01 -2.777540e+00 32 30 34
6.685091e-01 1.489708e-01 -2.619989e+00 201 188 171
-9.750745e-02 2.151732e-01 -2.601605e+00 53 57 75
9.529987e-01 1.641866e-01 -2.822187e+00 190 181 176
-1.062464e-02 1.517760e-01 -2.591076e+00 143 141 144
1.011302e+00 8.251303e-02 -2.809212e+00 213 205 192
1.023972e+00 6.151847e-02 -2.809286e+00 175 164 136
1.035946e+00 2.806658e-02 -2.813112e+00 183 172 142
1.053368e+00 2.424649e-02 -2.812634e+00 170 157 128
9.857830e-01 1.043815e-02 -2.797094e+00 169 157 130
1.075029e+00 1.188075e-02 -2.807855e+00 89 95 76
7.408656e-02 3.350148e-02 -2.601031e+00 166 174 184
9.264577e-01 -7.895060e-02 -2.730995e+00 101 109 85
8.933133e-01 -1.167128e-01 -2.726822e+00 119 118 93
7.429246e-01 -1.168623e-01 -2.600802e+00 54 61 73
1.179092e+00 -1.575884e-01 -2.761364e+00 73 62 68
-1.748394e-01 -1.444626e-01 -2.737233e+00 207 199 188
2.207645e-01 -1.448428e-01 -2.649384e+00 164 165 160
2.225671e-01 -1.546971e-01 -2.647474e+00 55 63 74
1.412876e+00 -2.390484e-01 -2.855784e+00 190 188 181
1.443738e+00 -2.990678e-01 -2.847832e+00 204 185 179
1.431906e+00 -3.093813e-01 -2.836322e+00 207 187 179
1.233804e+00 -2.991352e-01 -2.726099e+00 184 185 186
-8.805856e-02 -2.582294e-01 -2.643569e+00 188 197 202
3.889483e-01 -3.165444e-01 -2.603814e+00 82 87 94
2.565167e-01 -3.456587e-01 -2.643144e+00 187 184 176
3.454953e-01 -3.410711e-01 -2.604873e+00 23 30 38
1.171023e+00 -4.552436e-01 -2.783989e+00 44 45 49
1.171023e+00 -4.552436e-01 -2.783989e+00 44 45 49
1.177131e+00 -4.517975e-01 -2.773005e+00 194 178 172
4.377566e-01 -4.688605e-01 -2.709118e+00 64 72 90
7.496004e-02 -5.155314e-01 -2.670930e+00 148 148 145
4.528222e-01 -5.276069e-01 -2.697289e+00 103 99 96
6.111954e-01 -5.483343e-01 -2.721246e+00 53 60 70
9.544316e-01 -5.974951e-01 -2.726010e+00 185 192 198
2.306152e-02 -5.925382e-01 -2.656158e+00 22 21 27
3.235981e-01 -5.947484e-01 -2.710260e+00 181 178 166
6.254518e-01 -6.172331e-01 -2.721117e+00 52 59 65
9.898052e-01 4.869710e-01 -2.807902e+00 174 189 208
6.101334e-01 4.334419e-01 -2.729554e+00 85 82 85
4.259622e-01 4.656362e-01 -2.782611e+00 92 96 105
9.870642e-01 4.718344e-01 -2.810958e+00 36 42 47
8.007480e-01 3.913580e-01 -2.756434e+00 211 209 211
1.190826e-01 4.713940e-01 -2.782032e+00 150 146 145
6.904262e-01 3.478969e-01 -2.700498e+00 163 151 137
4.830196e-01 3.388431e-01 -2.735689e+00 34 36 50
4.130832e-01 3.488903e-01 -2.747030e+00 29 33 36
4.118953e-01 3.506148e-01 -2.753734e+00 29 33 36
5.954619e-01 3.081961e-01 -2.701102e+00 119 117 120
7.627511e-02 3.722305e-01 -2.752908e+00 180 175 172
7.438684e-02 3.733271e-01 -2.757015e+00 180 175 172
5.913053e-01 2.715471e-01 -2.698275e+00 122 118 119
1.213502e+00 3.176380e-01 -2.790028e+00 159 158 163
6.239290e-01 2.431750e-01 -2.699808e+00 30 34 41
1.442652e-01 3.023312e-01 -2.766377e+00 36 37 36
-2.905105e-02 3.244776e-01 -2.784720e+00 52 59 75
-3.793759e-02 3.266884e-01 -2.798111e+00 52 59 75
3.757072e-01 2.587380e-01 -2.792300e+00 194 187 179
5.519285e-01 2.100082e-01 -2.684901e+00 148 146 147
3.462413e-01 2.433965e-01 -2.792130e+00 192 189 185
9.534164e-01 2.225264e-01 -2.834683e+00 55 53 44
3.476581e-01 2.218363e-01 -2.785039e+00 193 192 189
9.963012e-01 2.093523e-01 -2.837393e+00 133 123 114
-1.918105e-01 1.195801e-01 -2.624426e+00 54 51 62
-3.502225e-01 1.195117e-01 -2.675569e+00 120 119 124
-4.628477e-01 1.231265e-01 -2.721618e+00 185 181 178
4.868129e-02 5.370955e-02 -2.599274e+00 58 79 110
9.416645e-01 1.492934e-02 -2.784611e+00 36 36 37
-3.754190e-01 9.371081e-02 -2.671027e+00 127 126 131
2.360567e-02 2.669552e-02 -2.606088e+00 54 77 108
-3.767925e-01 4.633888e-02 -2.738140e+00 61 47 47
8.216262e-01 -6.860437e-02 -2.655415e+00 201 204 208
-4.598256e-01 -3.995026e-02 -2.701361e+00 39 43 46
1.194975e+00 -1.179240e-01 -2.768868e+00 223 223 211
1.097624e+00 -2.053142e-01 -2.770215e+00 217 216 200
1.145740e+00 -2.212597e-01 -2.748062e+00 229 227 211
1.016838e+00 -2.403117e-01 -2.754515e+00 45 52 60
1.016838e+00 -2.403117e-01 -2.754515e+00 45 52 60
-7.829606e-02 -2.108439e-01 -2.662526e+00 53 52 52
-9.557448e-02 -2.778226e-01 -2.699164e+00 22 21 27
1.232295e+00 -3.081517e-01 -2.728557e+00 176 178 180
1.225066e+00 -3.265614e-01 -2.730775e+00 220 221 219
2.496718e-02 -2.828808e-01 -2.658234e+00 194 190 187
3.406368e-01 -2.719531e-01 -2.649972e+00 99 84 77
5.004443e-02 -3.008614e-01 -2.655071e+00 196 190 190
6.188429e-02 -3.082447e-01 -2.656025e+00 66 73 91
1.351733e-01 -3.704727e-01 -2.718407e+00 61 64 76
3.739188e-01 -3.157969e-01 -2.609879e+00 84 85 90
2.578260e-01 -3.353007e-01 -2.643089e+00 134 124 122
2.331153e-01 -3.469691e-01 -2.642042e+00 179 175 172
1.200785e-01 -3.935185e-01 -2.718236e+00 161 149 142
4.724641e-01 -4.058395e-01 -2.726882e+00 151 152 156
3.218458e-01 -4.096410e-01 -2.607462e+00 140 134 134
4.330243e-01 -4.766628e-01 -2.705949e+00 134 134 136
5.124868e-01 -5.404367e-01 -2.689215e+00 111 109 105
9.056038e-01 -5.886332e-01 -2.706976e+00 154 162 157
1.327443e+00 -6.982242e-01 -2.771653e+00 178 201 210
3.537842e-01 -6.007809e-01 -2.646171e+00 41 48 64
4.194846e-01 3.982797e-01 -2.780468e+00 168 160 157
1.031762e+00 3.481613e-01 -2.867768e+00 183 171 137
9.863729e-01 2.992057e-01 -2.841301e+00 182 168 94
1.028624e+00 2.855334e-01 -2.808226e+00 192 150 146
6.208764e-01 2.256375e-01 -2.700522e+00 49 53 64
6.208764e-01 2.256375e-01 -2.700522e+00 49 53 64
3.894045e-01 2.538465e-01 -2.785497e+00 44 45 50
5.220959e-01 2.194620e-01 -2.688293e+00 172 164 166
9.874615e-01 2.548631e-01 -2.845595e+00 170 162 151
1.003678e+00 2.166097e-01 -2.831542e+00 212 203 185
9.808213e-01 1.705494e-01 -2.823250e+00 197 187 179
1.601411e-03 1.530301e-01 -2.590530e+00 162 158 158
-9.672955e-02 1.466462e-01 -2.589781e+00 163 158 162
2.020516e-02 1.188470e-01 -2.585264e+00 141 139 144
-7.607256e-02 1.265290e-01 -2.588018e+00 151 146 152
8.237186e-01 5.329251e-02 -2.748298e+00 153 153 151
-1.914464e-02 9.066142e-02 -2.581381e+00 154 152 154
7.920661e-01 9.157735e-03 -2.671064e+00 185 140 128
1.085655e+00 1.086434e-02 -2.796131e+00 158 165 105
-5.289836e-01 1.012857e-01 -2.725234e+00 190 184 183
-3.705829e-01 5.419919e-02 -2.702367e+00 47 44 49
1.059466e-01 8.475793e-03 -2.628959e+00 42 39 53
1.194650e-01 -2.023505e-02 -2.627121e+00 132 141 150
-4.004491e-01 -3.251915e-05 -2.710192e+00 44 44 57
-3.307111e-01 -1.837544e-01 -2.717056e+00 69 72 86
8.661435e-01 -2.674219e-01 -2.748885e+00 182 180 157
3.901961e-02 -2.451392e-01 -2.651503e+00 192 158 159
9.763679e-01 -2.799369e-01 -2.682111e+00 167 155 147
2.967934e-01 -2.745270e-01 -2.647966e+00 32 36 46
3.967906e-01 -2.756484e-01 -2.624540e+00 88 94 100
1.187981e+00 -3.782695e-01 -2.720269e+00 48 54 65
4.262994e-01 -4.491616e-01 -2.703637e+00 56 70 79
-6.475786e-02 -4.909923e-01 -2.695353e+00 25 24 29
4.643889e-01 -5.286771e-01 -2.672599e+00 103 99 94
1.425046e-01 -6.043342e-01 -2.702102e+00 80 89 98
2.647144e-01 -5.984022e-01 -2.695461e+00 126 147 171
2.755216e-01 -6.097634e-01 -2.693725e+00 14 15 20
6.900159e-01 -6.578772e-01 -2.726246e+00 44 54 71
1.450308e-01 4.651808e-01 -2.784648e+00 169 164 163
3.425328e-01 3.558070e-01 -2.772014e+00 196 207 213
5.660180e-01 3.107121e-01 -2.713820e+00 158 157 155
8.930554e-01 3.431261e-01 -2.827475e+00 42 43 46
5.814818e-01 2.394493e-01 -2.700656e+00 50 57 69
9.114670e-01 1.085507e-01 -2.816277e+00 179 173 164
9.576011e-01 1.085514e-01 -2.801838e+00 104 104 76
7.357716e-01 7.348981e-02 -2.771660e+00 157 128 121
4.522131e-02 8.280636e-02 -2.608935e+00 75 86 106
1.077674e+00 5.222021e-02 -2.816366e+00 172 161 131
1.251759e+00 3.984747e-02 -2.711947e+00 187 148 145
9.749521e-01 -8.930602e-03 -2.794896e+00 36 42 41
1.106009e+00 -2.016513e-02 -2.793552e+00 193 206 206
8.461617e-02 2.110695e-03 -2.618230e+00 27 30 39
8.107183e-01 -3.003674e-02 -2.658254e+00 254 253 254
6.038780e-02 1.396225e-03 -2.604179e+00 22 20 26
1.180778e-01 -3.579446e-03 -2.629884e+00 56 46 57
1.127701e-01 -1.142543e-01 -2.626862e+00 29 32 44
1.596929e-01 -1.312342e-01 -2.611707e+00 102 103 102
1.005988e+00 -2.215175e-01 -2.765282e+00 174 164 154
3.198999e-01 -3.378417e-01 -2.609415e+00 33 43 60
3.198999e-01 -3.378417e-01 -2.609415e+00 33 43 60
3.198999e-01 -3.378417e-01 -2.609415e+00 33 43 60
1.161632e+00 -5.834875e-01 -2.704720e+00 228 228 223
2.647549e-01 -5.983193e-01 -2.695371e+00 126 147 171
6.868092e-01 4.094459e-01 -2.717739e+00 51 49 57
9.418210e-01 4.664642e-01 -2.820245e+00 195 147 154
9.417026e-01 4.663903e-01 -2.821512e+00 195 147 154
1.002159e+00 4.397413e-01 -2.823272e+00 146 148 103
2.202625e-01 4.645179e-01 -2.817381e+00 182 164 159
3.729994e-01 3.999562e-01 -2.787524e+00 28 28 35
6.164059e-02 4.372119e-01 -2.782610e+00 122 116 120
1.018747e+00 2.642253e-01 -2.848946e+00 189 158 153
1.018747e+00 2.642253e-01 -2.848946e+00 189 158 153
7.992583e-01 -1.153848e-02 -2.659442e+00 246 247 248
9.285795e-01 -1.249063e-01 -2.724013e+00 147 134 127
-4.041152e-01 -9.839131e-02 -2.731395e+00 41 41 47
4.749158e-01 -2.815205e-01 -2.726801e+00 31 35 44
3.528981e-01 -3.405931e-01 -2.602842e+00 28 30 35
2.411721e-01 -3.750005e-01 -2.638558e+00 41 45 57
4.022719e-01 4.145467e-01 -2.778721e+00 25 26 31
1.896450e-01 3.577249e-01 -2.770347e+00 163 168 174
9.714892e-01 2.226005e-01 -2.833500e+00 195 187 178
-2.367859e-02 2.459592e-01 -2.781173e+00 23 28 34
1.961831e-01 1.702524e-01 -2.716914e+00 15 21 21
8.220234e-01 1.451420e-01 -2.804729e+00 24 25 29
-1.850809e-02 2.429455e-02 -2.550861e+00 122 134 146
7.822658e-01 -5.521645e-02 -2.649437e+00 191 191 187
9.392709e-01 -1.456302e-01 -2.721000e+00 39 43 46
9.925326e-01 -2.557401e-01 -2.688141e+00 40 41 45
1.183184e+00 -4.006883e-01 -2.740234e+00 228 232 230
4.099469e-01 -5.178514e-01 -2.703974e+00 132 124 122
9.316576e-01 1.923797e-01 -2.817847e+00 36 40 41
8.081746e-01 1.178659e-01 -2.797537e+00 164 161 152
1.143329e+00 6.167516e-02 -2.798406e+00 208 213 216
-5.968899e-01 6.991545e-03 -2.722206e+00 180 157 163
1.112860e+00 -1.063432e-01 -2.770780e+00 42 41 39
1.045142e+00 4.066543e-01 -2.890882e+00 173 157 131
9.518571e-01 2.821912e-01 -2.843873e+00 176 161 131
-5.590297e-02 3.105077e-01 -2.792001e+00 25 25 33
8.693400e-01 1.892352e-01 -2.802484e+00 175 159 129
9.344586e-01 2.795389e-02 -2.796841e+00 28 31 36
1.676271e-01 2.698040e-02 -2.650712e+00 31 31 41
2.253954e-01 -1.834676e-01 -2.647763e+00 185 178 169
-1.002805e-01 -4.758197e-01 -2.576260e+00 39 38 44
8.428531e-01 -3.042218e-02 -2.654246e+00 34 41 51
3.236396e-02 2.908986e-01 -2.776840e+00 159 157 160
1.881518e-01 -1.127919e-01 -2.643874e+00 39 43 54
1.401651e-01 2.577540e-01 -2.760698e+00 25 26 31
7.862263e-02 -4.897419e-02 -2.615947e+00 23 27 39
9.878402e-01 -1.257882e-01 -2.727853e+00 181 174 162
9.092005e-01 -2.543960e-01 -2.704764e+00 224 209 186
6.761353e-01 5.891982e-01 -2.701912e+00 232 225 233
7.919918e-01 6.435694e-01 -2.815570e+00 196 185 198
6.626057e-01 5.682843e-01 -2.698289e+00 178 179 177
6.347723e-01 5.600160e-01 -2.685304e+00 252 234 227
6.361021e-01 5.562605e-01 -2.683640e+00 200 171 165
9.264104e-01 6.136505e-01 -2.794920e+00 203 223 216
7.327257e-01 5.578132e-01 -2.703856e+00 200 154 156
6.465232e-01 5.375285e-01 -2.663463e+00 84 42 46
6.978954e-01 5.423141e-01 -2.680013e+00 177 139 167
6.535879e-01 5.369115e-01 -2.669268e+00 92 70 54
1.902188e-01 6.595405e-01 -2.818844e+00 107 79 73
6.973343e-01 5.382609e-01 -2.682837e+00 208 162 170
6.488536e-01 5.348697e-01 -2.674971e+00 92 46 49
6.488536e-01 5.348697e-01 -2.674971e+00 92 46 49
6.482911e-01 5.331949e-01 -2.676950e+00 168 122 128
2.048677e-01 6.493986e-01 -2.824794e+00 212 193 175
6.590824e-01 5.277221e-01 -2.680744e+00 200 161 159
6.227292e-01 5.435276e-01 -2.725159e+00 206 175 173
6.227292e-01 5.435276e-01 -2.725159e+00 206 175 173
6.630644e-01 5.235174e-01 -2.682937e+00 205 164 162
6.268894e-01 5.382635e-01 -2.723268e+00 211 177 175
6.643576e-01 5.160914e-01 -2.683161e+00 207 158 162
5.929861e-01 5.410327e-01 -2.746312e+00 81 9 14
2.008691e-01 6.234039e-01 -2.846344e+00 182 179 179
5.809288e-01 5.335061e-01 -2.742688e+00 251 230 236
5.764055e-01 5.298672e-01 -2.741086e+00 192 101 117
6.433724e-01 5.196330e-01 -2.722914e+00 211 176 175
1.964996e-01 6.187706e-01 -2.847934e+00 167 168 178
6.038931e-01 5.287479e-01 -2.751135e+00 221 195 206
2.002466e-01 6.151719e-01 -2.851105e+00 53 58 56
7.921673e-01 5.378944e-01 -2.786559e+00 84 92 106
2.144411e-01 6.105265e-01 -2.855096e+00 193 192 197
7.936737e-01 5.363709e-01 -2.787317e+00 88 99 109
7.253940e-01 5.061543e-01 -2.726761e+00 11 37 50
8.013311e-01 5.293327e-01 -2.787635e+00 69 46 62
8.320831e-01 5.321796e-01 -2.791557e+00 245 246 243
1.849594e-01 6.009794e-01 -2.843055e+00 58 59 54
5.785881e-01 5.103327e-01 -2.737373e+00 236 236 233
7.106579e-01 5.050438e-01 -2.731680e+00 214 213 213
7.127126e-01 5.012792e-01 -2.729158e+00 58 48 63
7.017790e-01 5.011745e-01 -2.729867e+00 83 80 92
8.604041e-01 5.155262e-01 -2.756413e+00 199 149 160
7.031635e-01 4.995247e-01 -2.731376e+00 99 95 104
7.971302e-01 5.171549e-01 -2.786268e+00 202 152 154
5.837966e-01 4.976127e-01 -2.741570e+00 230 221 219
2.006659e-01 5.688466e-01 -2.841063e+00 184 179 183
8.211210e-01 5.110517e-01 -2.831999e+00 203 180 166
5.895935e-01 4.643970e-01 -2.697253e+00 204 157 165
5.895935e-01 4.643970e-01 -2.697253e+00 204 157 165
8.130208e-01 5.148657e-01 -2.859092e+00 40 48 60
6.070797e-01 4.502294e-01 -2.691070e+00 218 177 181
9.876267e-01 4.958299e-01 -2.805312e+00 155 190 212
6.000369e-01 4.493280e-01 -2.699894e+00 223 183 192
9.847103e-01 4.935148e-01 -2.804230e+00 148 183 207
6.412051e-01 4.442096e-01 -2.692468e+00 101 72 105
6.250715e-01 4.373152e-01 -2.693106e+00 204 159 165
6.231707e-02 5.367699e-01 -2.794701e+00 179 175 172
6.892051e-01 4.167370e-01 -2.709728e+00 167 157 130
8.716269e-02 4.990861e-01 -2.786969e+00 113 115 111
8.716269e-02 4.990861e-01 -2.786969e+00 113 115 111
6.600804e-01 3.989457e-01 -2.693008e+00 171 163 151
2.021015e-01 4.642048e-01 -2.828574e+00 56 46 47
1.089085e-01 4.397479e-01 -2.775469e+00 168 164 164
6.927785e-02 4.449928e-01 -2.776196e+00 111 102 103
-1.876884e-01 4.891871e-01 -2.814721e+00 44 48 57
7.256826e-02 4.290376e-01 -2.771903e+00 121 112 112
7.755575e-01 3.678746e-01 -2.750379e+00 198 205 184
9.426535e-01 3.909843e-01 -2.858884e+00 139 130 114
1.935873e-01 3.882433e-01 -2.769105e+00 185 188 175
1.283262e-01 3.921324e-01 -2.766096e+00 176 171 169
4.235399e-02 3.939348e-01 -2.761111e+00 160 153 148
9.326582e-01 3.567855e-01 -2.847029e+00 70 62 41
9.375175e-01 3.535644e-01 -2.846784e+00 147 138 109
9.158560e-01 3.515388e-01 -2.842270e+00 169 163 145
7.973834e-02 3.756974e-01 -2.761514e+00 103 105 95
-2.447686e-01 4.346237e-01 -2.809089e+00 118 123 136
1.868987e-01 3.594272e-01 -2.771854e+00 157 164 169
8.954145e-01 3.351956e-01 -2.832647e+00 41 35 17
1.134084e-01 3.612436e-01 -2.753719e+00 180 176 173
1.108245e+00 3.399572e-01 -2.787438e+00 245 239 238
1.112196e+00 3.206067e-01 -2.763725e+00 248 254 255
1.100220e+00 3.187839e-01 -2.764501e+00 246 254 254
1.100220e+00 3.187839e-01 -2.764501e+00 246 254 254
8.660815e-01 3.016221e-01 -2.821619e+00 121 115 104
9.743112e-01 3.006168e-01 -2.846365e+00 172 155 130
1.289917e-01 3.184423e-01 -2.753935e+00 173 155 153
1.076532e-01 3.199132e-01 -2.751441e+00 69 68 65
-5.361221e-01 4.074705e-01 -2.734762e+00 170 174 166
1.767547e-01 3.064736e-01 -2.782976e+00 206 196 202
1.767547e-01 3.064736e-01 -2.782976e+00 206 196 202
-3.460165e-01 3.773785e-01 -2.830592e+00 131 124 112
-4.960320e-02 3.303600e-01 -2.799260e+00 46 50 47
-3.627335e-01 3.739128e-01 -2.828261e+00 51 44 38
1.009457e+00 2.794407e-01 -2.852972e+00 202 184 176
2.006661e-01 2.770428e-01 -2.781111e+00 21 30 11
-2.823215e-01 3.288405e-01 -2.822164e+00 160 144 156
-2.672137e-01 3.226078e-01 -2.821189e+00 106 91 81
-2.867777e-01 3.186626e-01 -2.819121e+00 156 151 135
9.721763e-01 2.447518e-01 -2.836891e+00 164 164 141
7.680083e-01 2.324755e-01 -2.811699e+00 43 45 44
1.145860e+00 2.422501e-01 -2.742689e+00 183 130 123
-2.500787e-01 2.993463e-01 -2.815847e+00 185 163 165
7.799836e-01 2.293861e-01 -2.813187e+00 145 138 128
7.799836e-01 2.293861e-01 -2.813187e+00 145 138 128
-3.286450e-01 3.001361e-01 -2.815856e+00 62 52 53
-3.286450e-01 3.001361e-01 -2.815856e+00 62 52 53
-3.192459e-01 2.993900e-01 -2.816068e+00 172 170 165
2.528285e-02 2.472072e-01 -2.783219e+00 40 49 54
9.601507e-01 2.045290e-01 -2.828117e+00 186 182 169
-7.123332e-02 2.362552e-01 -2.781693e+00 101 99 92
8.842063e-01 1.850567e-01 -2.804351e+00 51 34 22
9.816431e-01 1.826947e-01 -2.828910e+00 131 125 113
-1.130182e-01 2.229823e-01 -2.601130e+00 31 39 52
9.411542e-01 1.786353e-01 -2.820949e+00 184 188 192
9.445439e-01 1.777331e-01 -2.821792e+00 182 184 177
1.032620e+00 1.482644e-01 -2.824807e+00 159 152 142
1.847387e-02 1.554104e-01 -2.751878e+00 17 21 33
8.739841e-01 1.232600e-01 -2.809932e+00 121 114 104
6.178581e-01 1.249729e-01 -2.642600e+00 237 199 133
6.178581e-01 1.249729e-01 -2.642600e+00 237 199 133
9.486535e-01 1.032749e-01 -2.803101e+00 140 117 106
8.181568e-01 1.016465e-01 -2.797303e+00 170 169 167
-7.094086e-03 1.203943e-01 -2.585851e+00 170 170 171
1.164081e+00 7.485861e-02 -2.804997e+00 73 80 82
8.124580e-01 5.870823e-02 -2.743430e+00 70 71 69
9.086696e-01 4.495892e-02 -2.801586e+00 155 156 155
9.396461e-01 -1.076185e-03 -2.789332e+00 200 184 154
9.998566e-01 -4.571932e-03 -2.802327e+00 48 44 54
1.000763e+00 -5.184646e-03 -2.803952e+00 48 44 54
1.000234e+00 -7.160436e-03 -2.804393e+00 152 144 145
9.614135e-01 -1.642023e-02 -2.794440e+00 47 44 28
1.238794e+00 -6.428634e-03 -2.717337e+00 210 205 201
1.137260e+00 -1.844021e-04 -2.683112e+00 210 213 216
9.588212e-01 -2.012166e-02 -2.788072e+00 48 49 48
2.553010e-02 -1.757562e-03 -2.604087e+00 215 207 219
3.478063e-02 -2.484526e-02 -2.628451e+00 44 32 41
1.138370e+00 -7.624854e-02 -2.813136e+00 115 110 91
1.138370e+00 -7.624854e-02 -2.813136e+00 115 110 91
7.880140e-01 -3.693858e-02 -2.666124e+00 187 187 182
8.340698e-03 -4.157883e-02 -2.592132e+00 161 152 158
8.340698e-03 -4.157883e-02 -2.592132e+00 161 152 158
1.426184e+00 -1.305283e-01 -2.861735e+00 134 119 133
2.259989e-01 -5.877925e-02 -2.651614e+00 216 191 204
1.155282e+00 -1.045670e-01 -2.794720e+00 205 185 212
1.358061e+00 -1.451557e-01 -2.834658e+00 194 76 92
1.236895e+00 -1.181376e-01 -2.758832e+00 132 109 55
1.188954e+00 -1.237643e-01 -2.772524e+00 150 142 139
1.170021e+00 -1.317340e-01 -2.801999e+00 224 220 212
1.165384e+00 -1.370225e-01 -2.785983e+00 220 225 202
1.249283e+00 -1.446518e-01 -2.763721e+00 111 87 44
1.223202e+00 -1.510690e-01 -2.764425e+00 109 110 114
1.482853e-01 -1.183303e-01 -2.622215e+00 195 208 207
8.343340e-02 -1.239205e-01 -2.622986e+00 194 189 172
8.878373e-01 -1.431058e-01 -2.729973e+00 129 161 190
1.109024e+00 -1.968402e-01 -2.767740e+00 25 24 28
1.112211e+00 -1.974585e-01 -2.756371e+00 203 207 185
1.095262e+00 -2.091212e-01 -2.757214e+00 130 133 131
1.126727e+00 -2.291962e-01 -2.757123e+00 196 191 195
8.878045e-01 -2.195657e-01 -2.764041e+00 42 45 36
1.126424e+00 -2.301205e-01 -2.754893e+00 83 80 100
1.070462e+00 -2.443105e-01 -2.777333e+00 180 181 166
5.871521e-01 -2.127062e-01 -2.735082e+00 150 147 142
3.486043e-01 -2.099716e-01 -2.661977e+00 169 148 139
3.471881e-01 -2.136664e-01 -2.658239e+00 131 111 114
8.622811e-01 -2.865143e-01 -2.750569e+00 108 126 82
3.228238e-01 -2.574675e-01 -2.645380e+00 135 143 134
9.086159e-01 -3.015569e-01 -2.706876e+00 219 199 191
3.026757e-01 -2.876651e-01 -2.652430e+00 194 185 176
4.134988e-01 -2.736831e-01 -2.637713e+00 91 98 93
8.841449e-01 -3.028814e-01 -2.689830e+00 213 214 228
7.478755e-01 -3.168365e-01 -2.703280e+00 215 215 206
9.804992e-01 -3.216667e-01 -2.682078e+00 175 176 166
2.942979e-01 -3.106378e-01 -2.648460e+00 115 106 107
9.417145e-01 -3.192911e-01 -2.670431e+00 33 22 36
9.795887e-01 -3.149050e-01 -2.640291e+00 198 153 158
3.519559e-01 -3.042078e-01 -2.605659e+00 54 65 67
3.541759e-01 -3.077668e-01 -2.606655e+00 59 67 69
7.078545e-01 -3.399342e-01 -2.685375e+00 122 122 126
8.897583e-01 -3.313375e-01 -2.650208e+00 188 189 193
9.511881e-01 -3.495366e-01 -2.659215e+00 79 93 109
5.461166e-01 -3.982392e-01 -2.729609e+00 56 61 81
5.461166e-01 -3.982392e-01 -2.729609e+00 56 61 81
3.676234e-01 -3.335492e-01 -2.593752e+00 197 227 244
8.323905e-01 -3.908386e-01 -2.673066e+00 240 237 222
8.403592e-01 -3.873997e-01 -2.664039e+00 78 74 73
8.467777e-01 -3.870632e-01 -2.659479e+00 217 211 196
9.151254e-01 -3.863090e-01 -2.649300e+00 196 200 205
8.503271e-01 -3.874478e-01 -2.653807e+00 121 114 106
9.299104e-01 -3.766067e-01 -2.616226e+00 230 234 222
4.733305e-01 -4.870204e-01 -2.726946e+00 119 114 91
6.780721e-01 5.794835e-01 -2.700465e+00 252 251 245
6.763904e-01 5.785513e-01 -2.701567e+00 60 57 52
8.555655e-01 5.913775e-01 -2.736479e+00 188 192 222
6.540492e-01 5.626616e-01 -2.687551e+00 198 199 198
8.214928e-01 6.246976e-01 -2.821776e+00 188 198 184
9.195715e-01 6.175247e-01 -2.795907e+00 91 110 105
6.552111e-01 5.368027e-01 -2.679766e+00 117 87 77
6.576403e-01 5.231605e-01 -2.683878e+00 202 156 159
6.665987e-01 5.215296e-01 -2.681525e+00 201 165 158
6.665987e-01 5.215296e-01 -2.681525e+00 201 165 158
5.898597e-01 5.367495e-01 -2.753980e+00 60 23 25
5.569054e-01 5.580444e-01 -2.810217e+00 84 78 81
2.258934e-01 6.096237e-01 -2.854525e+00 188 180 178
7.194072e-01 5.083643e-01 -2.729352e+00 234 232 217
5.805709e-01 5.097673e-01 -2.739491e+00 56 52 54
7.234416e-01 5.026669e-01 -2.732395e+00 71 58 46
6.972775e-01 4.987354e-01 -2.721786e+00 63 66 65
6.934808e-01 4.989775e-01 -2.728575e+00 67 71 72
6.983085e-01 4.968460e-01 -2.727519e+00 83 82 88
6.983085e-01 4.968460e-01 -2.727519e+00 83 82 88
8.588797e-01 5.090421e-01 -2.755109e+00 210 163 169
7.404097e-01 4.885195e-01 -2.728495e+00 222 218 212
8.504005e-01 5.048018e-01 -2.793078e+00 201 169 176
9.909626e-01 4.984907e-01 -2.806038e+00 166 195 218
5.872734e-02 5.473157e-01 -2.790205e+00 156 154 153
6.469714e-01 4.394421e-01 -2.688293e+00 243 250 252
9.385562e-01 4.464237e-01 -2.845292e+00 204 201 190
8.810198e-01 4.490898e-01 -2.875446e+00 184 175 166
9.411062e-01 4.405705e-01 -2.840715e+00 201 190 184
8.753859e-01 4.291124e-01 -2.871647e+00 185 185 165
2.295632e-01 4.424103e-01 -2.824764e+00 167 154 145
9.064930e-01 4.226772e-01 -2.874007e+00 149 146 137
9.016660e-01 4.193799e-01 -2.870545e+00 147 142 135
5.071466e-01 3.779208e-01 -2.710527e+00 116 116 118
4.720137e-02 4.437346e-01 -2.774091e+00 165 162 158
1.023078e-01 4.313093e-01 -2.772596e+00 170 167 164
6.236297e-03 4.447839e-01 -2.772453e+00 58 45 50
5.968839e-01 3.600164e-01 -2.721341e+00 247 249 248
5.977841e-01 3.508336e-01 -2.716670e+00 178 175 182
9.196691e-01 3.560844e-01 -2.843630e+00 182 169 141
6.447772e-02 3.826084e-01 -2.759020e+00 176 170 170
7.153404e-02 3.695599e-01 -2.757420e+00 180 174 174
-4.621380e-01 4.492594e-01 -2.734309e+00 51 49 53
1.034583e-01 3.458245e-01 -2.751681e+00 198 195 190
1.028058e+00 3.102063e-01 -2.859284e+00 201 185 170
1.030034e+00 3.080664e-01 -2.859482e+00 124 104 96
8.658670e-01 2.958427e-01 -2.818655e+00 152 145 106
8.857470e-01 2.953774e-01 -2.826224e+00 183 168 138
7.355220e-02 3.234924e-01 -2.745873e+00 56 47 45
-5.496274e-01 4.066142e-01 -2.733711e+00 201 194 183
-5.398001e-01 4.029172e-01 -2.730236e+00 83 76 89
-3.609782e-01 3.766597e-01 -2.828096e+00 119 109 102
7.869680e-01 2.781466e-01 -2.824715e+00 148 148 151
7.983199e-01 2.766013e-01 -2.829137e+00 148 145 136
2.200948e-01 2.945917e-01 -2.784678e+00 120 123 98
-4.302074e-01 3.786849e-01 -2.829838e+00 171 154 144
-2.636158e-01 3.506735e-01 -2.825845e+00 86 88 90
-1.358873e-01 3.305108e-01 -2.786060e+00 185 185 181
1.595056e-01 2.871439e-01 -2.778519e+00 53 43 44
1.969580e-01 2.766490e-01 -2.782502e+00 118 127 99
1.970816e-01 2.766306e-01 -2.782186e+00 118 127 99
-3.542615e-01 3.433488e-01 -2.820771e+00 117 112 108
8.600335e-01 2.458268e-01 -2.809765e+00 171 157 119
-5.939094e-02 2.815732e-01 -2.757447e+00 193 190 183
-4.299911e-02 2.723889e-01 -2.784337e+00 166 155 143
1.408719e-01 2.521917e-01 -2.769078e+00 52 53 65
8.580857e-01 2.285921e-01 -2.808509e+00 69 67 41
-3.248749e-02 2.586195e-01 -2.785832e+00 29 34 38
1.172299e+00 2.234276e-01 -2.750308e+00 161 155 173
-1.386418e-02 2.237208e-01 -2.774093e+00 32 36 40
-1.064744e-01 1.984216e-01 -2.596127e+00 56 50 83
9.669504e-01 1.486437e-01 -2.818171e+00 190 181 174
1.265464e+00 1.601915e-01 -2.728689e+00 195 208 192
1.259222e+00 1.559697e-01 -2.732038e+00 249 253 255
1.257565e+00 1.548626e-01 -2.736836e+00 233 241 244
-1.256973e-02 1.507148e-01 -2.590281e+00 126 125 130
2.041965e-01 1.233923e-01 -2.702155e+00 94 102 85
5.967952e-01 1.143603e-01 -2.642074e+00 193 188 184
1.161895e+00 7.703736e-02 -2.821298e+00 241 247 251
1.070327e+00 6.022415e-02 -2.824784e+00 127 126 124
-7.643288e-02 1.020269e-01 -2.578700e+00 89 97 94
8.151586e-01 5.766524e-02 -2.745086e+00 175 176 168
9.451431e-01 4.695378e-02 -2.802049e+00 51 47 45
8.042589e-01 5.263039e-02 -2.740996e+00 169 172 180
1.145590e+00 4.166269e-02 -2.820353e+00 197 198 193
8.199031e-01 5.029237e-02 -2.743880e+00 170 175 163
-5.443202e-02 6.376906e-02 -2.543670e+00 190 182 191
-2.278903e-02 5.213869e-02 -2.563445e+00 21 24 43
1.061493e-01 -8.449964e-03 -2.624464e+00 166 152 154
9.182570e-02 -1.341048e-02 -2.621917e+00 38 4 11
7.423077e-01 -3.408810e-02 -2.656069e+00 175 177 172
1.061309e+00 -1.143536e-01 -2.789352e+00 172 164 151
1.257001e+00 -1.213510e-01 -2.756780e+00 110 107 45
1.223362e+00 -1.415277e-01 -2.767509e+00 178 179 174
8.848908e-01 -1.253691e-01 -2.732557e+00 27 34 23
2.243709e-01 -1.214633e-01 -2.658221e+00 59 68 77
8.059320e-02 -1.259829e-01 -2.623896e+00 39 24 45
1.780927e-01 -1.300843e-01 -2.621539e+00 173 184 188
6.056367e-01 -1.627656e-01 -2.747245e+00 162 161 147
1.787236e-01 -1.366029e-01 -2.620341e+00 167 178 188
1.030697e+00 -1.834198e-01 -2.760428e+00 143 136 128
1.060891e+00 -2.200790e-01 -2.762102e+00 146 146 137
2.000475e-01 -1.969708e-01 -2.639181e+00 29 30 34
2.000475e-01 -1.969708e-01 -2.639181e+00 29 30 34
3.441509e-01 -2.169021e-01 -2.659187e+00 122 100 101
8.723115e-01 -2.563176e-01 -2.755741e+00 185 187 154
5.976013e-01 -2.444335e-01 -2.733692e+00 17 48 62
8.742791e-01 -2.566600e-01 -2.751395e+00 192 173 149
5.992903e-01 -2.479912e-01 -2.733460e+00 194 219 240
5.992903e-01 -2.479912e-01 -2.733460e+00 194 219 240
3.330423e-01 -2.667078e-01 -2.651487e+00 194 187 174
3.308390e-01 -2.709219e-01 -2.658046e+00 194 187 174
1.006732e+00 -2.884721e-01 -2.678711e+00 244 237 226
1.006732e+00 -2.884721e-01 -2.678711e+00 244 237 226
3.497805e-01 -2.853733e-01 -2.657147e+00 162 144 133
5.342578e-01 -3.287844e-01 -2.736769e+00 111 120 122
6.602954e-01 -3.269137e-01 -2.726869e+00 163 153 141
6.602954e-01 -3.269137e-01 -2.726869e+00 163 153 141
8.959050e-01 -3.151490e-01 -2.691692e+00 232 248 225
9.614317e-01 -3.220212e-01 -2.676800e+00 60 55 76
7.372473e-01 -3.251466e-01 -2.689563e+00 40 45 85
9.106595e-01 -3.446814e-01 -2.664560e+00 158 153 162
2.700348e-01 -3.533417e-01 -2.639610e+00 183 179 176
9.524784e-01 -3.504553e-01 -2.648409e+00 146 162 180
4.773914e-01 -4.086667e-01 -2.716725e+00 27 30 43
7.679798e-01 -3.470984e-01 -2.628705e+00 233 238 231
4.257596e-01 -4.107614e-01 -2.704116e+00 147 162 156
8.986107e-01 -3.959879e-01 -2.685130e+00 163 169 171
4.151322e-01 -4.244406e-01 -2.699601e+00 169 177 173
5.063988e-01 -4.802689e-01 -2.729732e+00 32 31 32
2.149421e-01 6.785529e-01 -2.786904e+00 201 200 196
2.161238e-01 6.582518e-01 -2.834905e+00 113 108 96
5.841276e-01 5.329966e-01 -2.748909e+00 150 123 106
7.119719e-01 5.110791e-01 -2.729404e+00 34 35 44
7.973014e-01 5.224666e-01 -2.786803e+00 210 150 151
6.957287e-01 4.966966e-01 -2.726752e+00 201 198 197
6.927965e-01 4.947033e-01 -2.726079e+00 90 89 98
6.924189e-01 4.937097e-01 -2.720427e+00 90 89 98
9.302392e-01 5.292568e-01 -2.800794e+00 157 185 206
6.961187e-01 4.915814e-01 -2.726476e+00 175 172 178
8.364522e-01 4.922627e-01 -2.829466e+00 87 69 60
5.074860e-02 5.460179e-01 -2.799051e+00 158 154 154
6.904957e-02 5.379354e-01 -2.789783e+00 176 172 169
8.144139e-02 4.971814e-01 -2.787773e+00 99 93 97
8.153148e-02 4.971404e-01 -2.787656e+00 99 93 97
2.025493e-02 4.869404e-01 -2.780949e+00 173 169 167
5.524438e-01 4.036657e-01 -2.722033e+00 131 129 132
8.862530e-02 4.644022e-01 -2.780417e+00 167 163 164
8.932992e-03 4.729131e-01 -2.777032e+00 167 162 161
7.242872e-01 3.833279e-01 -2.702443e+00 190 184 170
2.832615e-02 4.531541e-01 -2.773828e+00 172 168 166
8.586729e-01 3.968625e-01 -2.824050e+00 47 45 36
1.614747e-01 4.247843e-01 -2.777146e+00 172 168 165
1.055677e-01 4.282408e-01 -2.772049e+00 150 146 145
5.849697e-01 3.570789e-01 -2.718121e+00 129 127 128
1.088738e+00 3.961183e-01 -2.890107e+00 174 171 162
1.398254e-01 3.883936e-01 -2.764162e+00 177 174 170
-4.447138e-01 4.843393e-01 -2.708001e+00 106 99 98
9.239680e-01 3.584270e-01 -2.844996e+00 153 147 121
5.836907e-02 3.704033e-01 -2.759563e+00 145 141 138
9.298579e-01 3.373173e-01 -2.845482e+00 162 147 114
2.162155e-01 3.451562e-01 -2.760127e+00 135 154 179
2.255136e-01 3.405365e-01 -2.759790e+00 117 156 204
8.853252e-01 3.237488e-01 -2.829924e+00 47 41 42
-2.944943e-01 4.174894e-01 -2.833274e+00 156 142 131
1.224693e-01 3.447726e-01 -2.758250e+00 35 37 44
-5.105711e-01 4.296772e-01 -2.737158e+00 193 194 184
1.018830e+00 3.142532e-01 -2.858949e+00 185 178 150
-5.493217e-01 4.204397e-01 -2.735478e+00 84 78 83
9.814813e-02 3.222192e-01 -2.750229e+00 173 174 178
-5.224285e-01 4.127338e-01 -2.731529e+00 163 173 160
-5.255796e-02 3.326268e-01 -2.800349e+00 184 186 173
1.858518e-01 2.957913e-01 -2.784864e+00 121 109 99
-2.668756e-01 3.513337e-01 -2.823442e+00 151 143 138
-3.929283e-01 3.564091e-01 -2.822093e+00 131 121 114
-3.929283e-01 3.564091e-01 -2.822093e+00 131 121 114
-2.726604e-01 3.343098e-01 -2.822753e+00 82 74 87
-3.607495e-01 3.370465e-01 -2.820729e+00 169 157 145
1.021218e+00 2.523111e-01 -2.851536e+00 211 206 187
9.936833e-01 2.416467e-01 -2.840512e+00 180 177 158
1.391323e-01 2.582241e-01 -2.769320e+00 37 38 43
-1.245391e-01 2.735893e-01 -2.777225e+00 176 184 185
-1.239214e-01 2.681643e-01 -2.783335e+00 30 42 31
-9.312729e-02 2.421130e-01 -2.599407e+00 123 128 131
-1.410042e-02 2.160220e-01 -2.771742e+00 32 37 42
1.149756e+00 1.895615e-01 -2.740080e+00 254 253 245
-1.563646e-03 2.092517e-01 -2.751221e+00 35 39 50
9.806119e-01 1.795450e-01 -2.828565e+00 179 172 162
8.588976e-01 1.717518e-01 -2.800060e+00 154 143 103
8.861596e-01 1.368332e-01 -2.809959e+00 159 156 147
3.515930e-02 1.490284e-01 -2.692658e+00 21 28 38
-1.787124e-02 1.219688e-01 -2.584930e+00 153 153 155
1.292353e+00 8.065176e-02 -2.675265e+00 177 184 199
1.142499e+00 6.081785e-02 -2.822075e+00 173 173 163
-5.161560e-02 9.437018e-02 -2.580847e+00 147 141 146
1.142912e+00 1.567356e-02 -2.722522e+00 183 188 192
8.176300e-03 3.893785e-02 -2.564422e+00 50 59 74
9.608128e-01 -1.277992e-02 -2.791514e+00 176 168 148
1.049001e+00 -2.807201e-02 -2.802754e+00 36 49 33
7.844664e-01 2.374269e-03 -2.667798e+00 60 42 42
6.470385e-02 7.587959e-03 -2.611079e+00 191 174 164
1.035480e-01 -1.147518e-03 -2.624817e+00 81 73 77
-3.458138e-02 -1.673176e-02 -2.574197e+00 47 59 75
2.131641e-02 -2.129775e-02 -2.586386e+00 178 166 146
1.087742e+00 -7.557820e-02 -2.798547e+00 182 176 164
1.177933e-02 -2.826709e-02 -2.585747e+00 11 15 26
1.172017e+00 -8.725401e-02 -2.819291e+00 190 187 174
1.396161e+00 -1.118092e-01 -2.858223e+00 215 207 188
1.425082e+00 -1.236018e-01 -2.863536e+00 254 240 243
1.421485e+00 -1.358119e-01 -2.870384e+00 106 100 100
1.248305e+00 -1.332604e-01 -2.762557e+00 133 132 65
6.507310e-01 -9.772556e-02 -2.695935e+00 166 133 132
8.911029e-01 -1.411743e-01 -2.732268e+00 142 150 177
9.788489e-01 -1.591198e-01 -2.761462e+00 177 171 159
1.028986e+00 -1.815944e-01 -2.763843e+00 174 162 140
1.097349e+00 -2.058289e-01 -2.754352e+00 124 125 130
9.867042e-01 -2.053602e-01 -2.757147e+00 164 165 124
5.370703e-01 -1.651403e-01 -2.666307e+00 113 123 114
2.325667e-01 -1.840421e-01 -2.649733e+00 166 158 149
8.698203e-01 -2.476279e-01 -2.756633e+00 133 133 107
8.706361e-01 -2.609970e-01 -2.751576e+00 182 177 150
5.731391e-01 -2.565419e-01 -2.730309e+00 22 23 28
2.052426e-01 -2.778427e-01 -2.721447e+00 58 57 67
2.052426e-01 -2.778427e-01 -2.721447e+00 58 57 67
7.144429e-01 -3.359538e-01 -2.690255e+00 57 56 81
5.892055e-01 -3.713683e-01 -2.739466e+00 129 130 131
9.431776e-01 -3.471383e-01 -2.670815e+00 210 192 193
9.339834e-01 -3.628558e-01 -2.658014e+00 75 62 47
9.008020e-01 -3.921571e-01 -2.681872e+00 150 161 161
1.020797e+00 -4.060488e-01 -2.647435e+00 149 151 146
4.390689e-01 -4.339107e-01 -2.705293e+00 139 148 150
6.683858e-01 5.778383e-01 -2.693474e+00 63 70 74
2.130901e-01 6.632720e-01 -2.778358e+00 81 81 80
7.658509e-01 5.461740e-01 -2.739037e+00 55 59 86
8.082701e-01 5.391253e-01 -2.792310e+00 161 169 180
9.708779e-01 5.541830e-01 -2.806914e+00 166 160 175
8.044546e-01 5.314882e-01 -2.789897e+00 60 45 63
7.198145e-01 5.052421e-01 -2.730300e+00 86 77 68
6.998224e-01 4.900265e-01 -2.724002e+00 89 92 111
6.461944e-01 4.781294e-01 -2.710789e+00 200 197 192
6.462746e-01 4.777169e-01 -2.706263e+00 200 197 192
5.174813e-01 5.238847e-01 -2.864515e+00 33 36 43
1.776223e-01 5.122961e-01 -2.791723e+00 154 117 83
7.548212e-01 4.479492e-01 -2.757870e+00 187 184 192
8.203638e-01 4.826297e-01 -2.871046e+00 29 33 42
4.588254e-01 4.621356e-01 -2.831619e+00 40 44 46
-1.837842e-01 5.210754e-01 -2.707874e+00 19 24 24
7.801427e-01 3.904840e-01 -2.759507e+00 34 42 59
7.694112e-01 3.806347e-01 -2.752907e+00 61 72 88
7.698358e-01 3.641900e-01 -2.748764e+00 158 166 180
9.451895e-01 3.928305e-01 -2.859179e+00 67 57 50
7.764138e-01 3.566557e-01 -2.751649e+00 136 144 152
9.055284e-02 3.721523e-01 -2.760869e+00 180 177 170
-5.925689e-02 3.691430e-01 -2.806363e+00 67 68 92
-3.110786e-01 3.822938e-01 -2.831416e+00 102 104 94
-3.110786e-01 3.822938e-01 -2.831416e+00 102 104 94
1.034684e+00 2.917036e-01 -2.804273e+00 208 162 150
8.829528e-01 2.807891e-01 -2.822531e+00 173 161 129
-3.522792e-01 3.713842e-01 -2.829465e+00 150 142 126
7.779382e-01 2.703703e-01 -2.820485e+00 41 46 49
-4.795891e-01 3.623003e-01 -2.800109e+00 31 32 36
1.751799e-01 2.694447e-01 -2.776282e+00 29 30 29
-2.588596e-01 3.192417e-01 -2.818290e+00 176 171 151
1.069800e+00 2.451484e-01 -2.773278e+00 211 175 160
1.894231e-01 2.580751e-01 -2.776548e+00 67 87 55
7.716925e-01 2.364652e-01 -2.814891e+00 110 113 106
-5.589016e-02 2.803280e-01 -2.780235e+00 60 64 68
1.173782e+00 2.363606e-01 -2.756514e+00 190 152 133
8.587404e-01 2.187972e-01 -2.806828e+00 168 157 108
9.985340e-01 2.232321e-01 -2.839026e+00 175 171 160
-1.176467e-01 1.952941e-01 -2.591332e+00 124 133 142
-4.655936e-02 1.808802e-01 -2.595356e+00 151 150 155
9.608822e-01 1.013722e-01 -2.801011e+00 117 123 90
-2.788301e-02 1.369752e-01 -2.587297e+00 172 174 176
9.247120e-01 6.661709e-02 -2.808312e+00 177 173 162
7.874752e-01 7.002223e-02 -2.740599e+00 156 156 154
1.026284e+00 -6.484625e-04 -2.808672e+00 65 62 52
7.951234e-01 1.491800e-02 -2.673195e+00 171 129 119
1.747303e-01 -1.960637e-02 -2.736445e+00 27 31 34
-4.129683e-02 -6.192074e-03 -2.594078e+00 42 46 56
2.540000e-02 -1.485346e-02 -2.589124e+00 128 130 116
7.509280e-01 -4.603024e-02 -2.656778e+00 74 81 96
7.509280e-01 -4.603024e-02 -2.656778e+00 74 81 96
-7.165506e-02 -5.186429e-02 -2.548435e+00 173 164 153
-7.165506e-02 -5.186429e-02 -2.548435e+00 173 164 153
-6.909790e-02 -5.426147e-02 -2.557475e+00 95 102 121
1.152291e+00 -1.125112e-01 -2.793713e+00 194 182 162
1.153943e+00 -1.162827e-01 -2.791931e+00 82 81 86
7.049718e-01 -1.171937e-01 -2.672016e+00 211 199 181
2.865650e-01 -1.347587e-01 -2.661058e+00 110 107 106
6.593082e-01 -1.447778e-01 -2.696718e+00 228 212 214
5.210736e-01 -1.422865e-01 -2.684120e+00 167 171 120
1.664719e-01 -1.406922e-01 -2.619138e+00 40 46 62
1.541076e-01 -1.594672e-01 -2.615173e+00 37 42 70
1.851957e-01 -1.614634e-01 -2.619392e+00 44 48 78
1.182296e+00 -2.210786e-01 -2.729993e+00 181 152 154
8.729606e-01 -2.202214e-01 -2.762254e+00 134 147 111
1.135034e+00 -2.320642e-01 -2.750681e+00 45 45 52
1.073383e+00 -2.343649e-01 -2.759359e+00 142 142 140
1.073383e+00 -2.343649e-01 -2.759359e+00 142 142 140
1.351020e-01 -1.937944e-01 -2.626085e+00 75 52 51
2.612702e-01 -2.299932e-01 -2.728201e+00 155 143 134
-1.548797e-02 -2.553867e-01 -2.660138e+00 54 37 37
1.032753e+00 -2.743951e-01 -2.714541e+00 96 99 75
4.806604e-01 -2.978030e-01 -2.720708e+00 139 147 161
7.597104e-01 -3.189466e-01 -2.746772e+00 197 192 187
2.028393e-01 -3.313756e-01 -2.708314e+00 168 166 161
3.979277e-01 -2.736863e-01 -2.633249e+00 83 86 91
9.791352e-01 -3.152145e-01 -2.680321e+00 43 50 56
9.769892e-01 -3.126103e-01 -2.676156e+00 43 50 56
9.852833e-01 -3.187651e-01 -2.682785e+00 175 166 155
4.673176e-01 -3.523597e-01 -2.723840e+00 58 54 55
5.974595e-01 -3.679497e-01 -2.740033e+00 167 165 161
9.215812e-01 -3.506338e-01 -2.664769e+00 64 63 86
3.972513e-01 -3.262707e-01 -2.606586e+00 75 80 84
4.690279e-01 -4.128435e-01 -2.718798e+00 82 92 96
4.081908e-01 -4.483228e-01 -2.693932e+00 188 189 194
1.061101e+00 6.296147e-01 -2.929928e+00 179 170 173
8.042458e-01 5.190975e-01 -2.791366e+00 157 115 109
4.763015e-01 4.838494e-01 -2.713478e+00 168 127 128
8.952667e-01 5.106407e-01 -2.809415e+00 73 90 109
8.939401e-01 5.093226e-01 -2.805570e+00 73 90 109
9.522129e-01 5.036728e-01 -2.810959e+00 183 195 201
8.554927e-02 5.451575e-01 -2.798799e+00 173 169 167
8.554927e-02 5.451575e-01 -2.798799e+00 173 169 167
9.503005e-01 4.860037e-01 -2.826154e+00 207 115 123
8.230641e-02 5.259759e-01 -2.794782e+00 167 163 162
7.868949e-01 4.038809e-01 -2.760145e+00 38 46 57
8.709273e-01 4.305319e-01 -2.871832e+00 37 49 43
9.434926e-01 3.966681e-01 -2.853864e+00 138 132 100
8.073242e-01 3.688131e-01 -2.760795e+00 204 195 179
7.836831e-01 3.592715e-01 -2.749779e+00 173 175 162
1.231770e-01 3.929443e-01 -2.765642e+00 159 154 151
-3.018126e-01 4.504342e-01 -2.752396e+00 22 24 19
5.830229e-02 3.863821e-01 -2.761172e+00 148 144 145
5.132301e-02 3.853830e-01 -2.760825e+00 156 151 151
-7.632450e-02 3.814499e-01 -2.719110e+00 67 71 50
-5.243744e-02 3.670506e-01 -2.806446e+00 165 163 169
-5.273117e-01 4.129207e-01 -2.742408e+00 23 29 30
-5.487583e-01 3.917097e-01 -2.810161e+00 43 48 52
8.357252e-01 2.633859e-01 -2.809576e+00 131 120 98
-2.897795e-01 3.208615e-01 -2.820661e+00 138 129 115
-2.897795e-01 3.208615e-01 -2.820661e+00 138 129 115
-3.217839e-01 3.185025e-01 -2.816794e+00 62 56 65
-2.906987e-01 3.145711e-01 -2.818793e+00 57 56 60
-5.502401e-01 3.460595e-01 -2.821820e+00 119 114 97
8.681112e-01 2.370017e-01 -2.810373e+00 166 151 117
8.962224e-01 2.379504e-01 -2.818703e+00 171 158 126
1.442149e-01 2.569601e-01 -2.770427e+00 26 27 31
1.442149e-01 2.569601e-01 -2.770427e+00 26 27 31
8.498839e-01 1.912833e-01 -2.801207e+00 163 160 118
-8.828759e-02 1.552804e-01 -2.590436e+00 163 161 166
2.078155e-02 1.159558e-01 -2.585912e+00 131 129 132
7.875897e-01 5.939559e-02 -2.741313e+00 152 151 147
9.020677e-01 4.020734e-02 -2.799392e+00 60 69 78
5.541569e-01 4.631027e-02 -2.626535e+00 199 195 194
-1.684662e-02 4.858522e-02 -2.556615e+00 19 28 37
-4.209349e-02 3.331010e-03 -2.550513e+00 35 40 43
1.423275e+00 -1.310183e-01 -2.866384e+00 249 246 241
8.118439e-01 -7.775038e-02 -2.669005e+00 52 64 76
1.046831e+00 -1.388192e-01 -2.779901e+00 171 157 143
8.736849e-01 -1.262241e-01 -2.728534e+00 27 42 71
1.059176e+00 -1.829841e-01 -2.781087e+00 95 97 82
3.394944e-01 -1.886126e-01 -2.738372e+00 36 44 61
3.394944e-01 -1.886126e-01 -2.738372e+00 36 44 61
3.532000e-01 -1.911692e-01 -2.738717e+00 175 173 156
1.082138e+00 -2.224431e-01 -2.759310e+00 243 244 225
2.751520e-01 -2.166022e-01 -2.732555e+00 130 120 110
1.187271e+00 -2.277552e-01 -2.729328e+00 180 151 151
1.075619e+00 -2.305437e-01 -2.752547e+00 233 227 221
2.276782e-01 -1.954511e-01 -2.643988e+00 50 44 50
2.131075e-01 -2.200447e-01 -2.633108e+00 193 164 171
5.465897e-01 -3.297481e-01 -2.738725e+00 152 153 157
2.729244e-01 -2.970382e-01 -2.640127e+00 140 148 160
2.729244e-01 -2.970382e-01 -2.640127e+00 140 148 160
5.745087e-01 -3.711998e-01 -2.737203e+00 150 154 155
6.617532e-01 -3.603666e-01 -2.720197e+00 188 181 171
9.466737e-01 -3.459316e-01 -2.668401e+00 135 103 113
9.375861e-01 -3.552358e-01 -2.663290e+00 131 113 111
3.791702e-01 -3.359552e-01 -2.606988e+00 85 90 93
9.906015e-01 -3.674281e-01 -2.644137e+00 53 66 74
4.929817e-01 -4.440518e-01 -2.711190e+00 225 231 227
1.723886e-01 5.828271e-01 -2.830400e+00 130 127 122
6.277642e-01 4.747377e-01 -2.702734e+00 169 168 174
9.464764e-01 4.777650e-01 -2.822091e+00 185 178 173
9.989777e-01 4.738573e-01 -2.804449e+00 171 168 127
1.006181e+00 4.613978e-01 -2.790457e+00 161 168 108
9.636493e-01 4.532064e-01 -2.810275e+00 187 193 197
8.529038e-01 4.504418e-01 -2.875094e+00 49 53 53
1.378341e-01 4.418760e-01 -2.778225e+00 173 170 163
3.424955e-02 4.445260e-01 -2.766974e+00 160 156 153
5.659568e-01 3.664303e-01 -2.719583e+00 114 114 116
1.437635e-01 3.874179e-01 -2.764330e+00 175 171 168
3.255067e-01 3.569947e-01 -2.770590e+00 160 171 180
-4.830077e-02 4.062762e-01 -2.810115e+00 51 56 74
3.171074e-01 3.484690e-01 -2.767007e+00 169 183 191
-4.702130e-01 4.570254e-01 -2.708072e+00 50 33 47
-2.631865e-01 3.587237e-01 -2.828846e+00 166 157 148
9.018953e-01 2.772785e-01 -2.825123e+00 158 150 114
9.449019e-01 2.630552e-01 -2.832556e+00 195 183 153
8.348665e-01 2.531032e-01 -2.806364e+00 142 127 98
-3.102412e-01 3.268675e-01 -2.819874e+00 52 51 59
8.128751e-01 2.244618e-01 -2.766742e+00 123 137 86
-5.343858e-01 3.226658e-01 -2.811057e+00 28 28 38
8.504179e-01 1.968742e-01 -2.797957e+00 48 53 45
1.936428e-01 1.942117e-01 -2.719322e+00 17 22 24
8.472310e-01 1.730506e-01 -2.794969e+00 127 127 124
-2.045939e-02 2.066752e-01 -2.599723e+00 56 59 71
3.620940e-02 1.708369e-01 -2.766130e+00 16 19 27
-3.059929e-02 1.689888e-01 -2.594094e+00 136 136 140
8.672222e-01 1.263497e-01 -2.804976e+00 166 159 149
9.230206e-01 9.707739e-02 -2.811651e+00 142 134 126
9.605852e-01 7.697320e-02 -2.800552e+00 124 127 99
8.624256e-01 5.040090e-02 -2.793129e+00 156 157 149
7.679361e-02 5.986768e-02 -2.647017e+00 34 31 40
