ply
format ascii 1.0
element face 0
property list uchar int vertex_indices
element vertex 921
property float x
property float y
property float z
property uchar diffuse_red
property uchar diffuse_green
property uchar diffuse_blue
end_header
-3.068257e-01 6.240940e-01 -2.698568e+00 111 122 128
3.070364e-01 6.686206e-01 -2.847810e+00 71 72 66
1.611729e-02 6.494321e-01 -2.826015e+00 40 35 32
-3.414288e-02 6.658649e-01 -2.856871e+00 145 138 123
6.126126e-01 6.609813e-01 -2.744524e+00 197 195 213
5.033144e-01 6.367119e-01 -2.737397e+00 233 230 236
5.827042e-01 6.474458e-01 -2.731905e+00 90 84 112
1.691815e-01 6.463449e-01 -2.839894e+00 240 233 219
5.061177e-01 6.321385e-01 -2.739174e+00 65 57 76
1.803928e-01 6.419705e-01 -2.837101e+00 58 52 66
1.803928e-01 6.419705e-01 -2.837101e+00 58 52 66
-1.855674e-02 6.529179e-01 -2.860316e+00 178 184 171
1.886509e-01 6.412717e-01 -2.842136e+00 120 106 62
8.273071e-02 6.418710e-01 -2.853802e+00 78 49 61
8.273071e-02 6.418710e-01 -2.853802e+00 78 49 61
1.935332e-01 6.383568e-01 -2.843466e+00 97 82 61
5.148046e-01 6.214121e-01 -2.737884e+00 72 61 80
5.989052e-01 6.332737e-01 -2.731173e+00 92 99 110
6.238455e-01 6.389860e-01 -2.739077e+00 202 205 204
6.629161e-01 6.260790e-01 -2.704565e+00 177 182 194
6.152379e-01 6.303178e-01 -2.732377e+00 132 134 148
3.060426e-01 6.272260e-01 -2.841946e+00 248 246 228
2.004716e-01 6.128005e-01 -2.829981e+00 159 157 171
2.364704e-01 6.178038e-01 -2.841863e+00 182 174 165
-6.098406e-02 6.232048e-01 -2.854789e+00 163 159 171
-6.423866e-02 6.204302e-01 -2.853257e+00 173 162 176
-5.658608e-02 6.165047e-01 -2.859011e+00 115 111 108
-5.658608e-02 6.165047e-01 -2.859011e+00 115 111 108
-5.744941e-02 6.142468e-01 -2.858666e+00 174 175 171
-6.152486e-02 6.141522e-01 -2.858616e+00 176 182 171
-4.496145e-02 6.023185e-01 -2.851506e+00 75 78 87
-4.740876e-02 6.032923e-01 -2.856832e+00 119 122 127
4.776614e-02 5.803328e-01 -2.814294e+00 179 187 162
1.241986e-01 5.538176e-01 -2.805887e+00 47 40 23
1.241986e-01 5.538176e-01 -2.805887e+00 47 40 23
5.449798e-01 5.644435e-01 -2.763597e+00 102 102 81
-6.950976e-02 5.459631e-01 -2.818273e+00 145 148 151
1.997481e-02 5.412063e-01 -2.824495e+00 43 34 49
-1.886963e-01 5.556570e-01 -2.839919e+00 43 46 51
-5.056040e-01 5.421834e-01 -2.700227e+00 27 27 16
6.162084e-01 5.195128e-01 -2.715236e+00 227 226 231
1.045603e-01 4.854733e-01 -2.783527e+00 118 118 119
-8.689745e-02 5.085924e-01 -2.832121e+00 103 112 122
5.228528e-03 4.804419e-01 -2.774841e+00 162 156 156
-3.694948e-01 5.332427e-01 -2.823380e+00 21 24 34
-5.581728e-01 5.210091e-01 -2.695709e+00 161 126 128
-4.113833e-01 4.845760e-01 -2.692580e+00 127 106 98
-9.079573e-02 4.906432e-01 -2.828690e+00 141 137 151
4.629281e-02 4.623642e-01 -2.773122e+00 167 165 163
1.567773e-01 4.586308e-01 -2.782146e+00 177 173 172
1.618223e-02 4.517767e-01 -2.768893e+00 201 196 191
1.829537e-02 4.492186e-01 -2.770088e+00 142 135 128
5.630395e-01 4.691433e-01 -2.743718e+00 187 183 178
1.141760e-01 4.420305e-01 -2.773462e+00 128 124 125
2.450652e-01 4.513543e-01 -2.800201e+00 214 198 174
5.556779e-01 4.660840e-01 -2.761706e+00 218 204 216
-4.848692e-01 4.624989e-01 -2.689042e+00 147 129 117
-2.108717e-01 4.580118e-01 -2.807571e+00 87 84 99
5.760566e-01 4.548042e-01 -2.743292e+00 195 189 193
5.810403e-01 4.510405e-01 -2.740571e+00 252 251 252
5.623745e-01 4.556841e-01 -2.775263e+00 246 245 248
5.623745e-01 4.556841e-01 -2.775263e+00 246 245 248
4.437239e-02 4.195845e-01 -2.762123e+00 170 166 166
6.078235e-02 4.197572e-01 -2.765902e+00 178 174 173
-2.222805e-01 4.445302e-01 -2.806280e+00 143 136 134
5.648190e-01 4.488287e-01 -2.785890e+00 228 223 200
5.761583e-01 4.435017e-01 -2.771757e+00 255 254 254
5.344752e-01 4.425633e-01 -2.802568e+00 63 62 34
-2.036474e-01 4.288686e-01 -2.801856e+00 155 154 154
3.300817e-01 4.167188e-01 -2.787878e+00 119 135 135
-6.112426e-01 4.644841e-01 -2.723505e+00 57 54 67
-4.495482e-01 4.308044e-01 -2.713982e+00 167 167 157
-4.495482e-01 4.308044e-01 -2.713982e+00 167 167 157
-5.916755e-01 4.498281e-01 -2.718947e+00 194 192 181
-1.633025e-01 4.112751e-01 -2.797736e+00 154 133 126
-4.963786e-01 4.290146e-01 -2.717508e+00 201 190 209
2.850738e-01 4.041047e-01 -2.813518e+00 227 218 212
4.315331e-01 4.014079e-01 -2.765342e+00 144 134 132
4.315331e-01 4.014079e-01 -2.765342e+00 144 134 132
-5.416896e-01 4.285283e-01 -2.714083e+00 208 197 203
-6.363910e-01 4.447034e-01 -2.718790e+00 225 220 211
3.424395e-01 3.995111e-01 -2.802485e+00 83 86 72
3.441137e-01 3.985859e-01 -2.802787e+00 233 236 219
4.395682e-01 3.953821e-01 -2.763945e+00 202 202 208
1.106771e-01 3.733817e-01 -2.756516e+00 180 179 176
-3.688947e-01 4.181281e-01 -2.829765e+00 109 106 95
-3.048793e-01 3.953022e-01 -2.830453e+00 53 54 59
3.041189e-01 3.637732e-01 -2.771128e+00 159 172 178
3.041189e-01 3.637732e-01 -2.771128e+00 159 172 178
4.563412e-01 3.808367e-01 -2.800681e+00 190 187 181
4.614924e-01 3.782987e-01 -2.799355e+00 67 62 65
9.668107e-02 3.488178e-01 -2.751420e+00 157 154 151
1.587758e-01 3.516553e-01 -2.764490e+00 80 81 85
1.587758e-01 3.516553e-01 -2.764490e+00 80 81 85
3.337914e-01 3.539651e-01 -2.768290e+00 178 192 201
-3.664366e-01 3.866790e-01 -2.826204e+00 76 72 74
4.788127e-01 3.672094e-01 -2.802915e+00 113 120 112
3.819408e-02 3.469134e-01 -2.806362e+00 170 157 141
6.337561e-01 3.629181e-01 -2.736889e+00 242 240 231
5.289712e-02 3.319768e-01 -2.802415e+00 168 153 137
4.624629e-01 3.369557e-01 -2.798981e+00 200 192 190
-4.469389e-01 3.525907e-01 -2.828980e+00 153 144 144
-3.821146e-02 3.154506e-01 -2.792537e+00 128 121 121
8.563215e-02 2.985583e-01 -2.780680e+00 88 86 84
2.640536e-01 3.006081e-01 -2.788838e+00 189 188 184
-2.466097e-01 3.154693e-01 -2.816322e+00 67 62 56
-2.675110e-01 3.164436e-01 -2.816057e+00 167 164 150
-2.792162e-01 3.171076e-01 -2.819457e+00 62 61 58
2.945854e-01 2.963308e-01 -2.772090e+00 40 59 86
-3.036069e-01 3.099124e-01 -2.816982e+00 80 76 60
-3.127264e-01 3.065706e-01 -2.816640e+00 63 57 45
-2.258588e-01 2.966512e-01 -2.805854e+00 255 235 131
-3.154895e-01 3.039716e-01 -2.816402e+00 164 158 136
-2.222795e-01 2.943316e-01 -2.804825e+00 226 215 135
-2.222795e-01 2.943316e-01 -2.804825e+00 226 215 135
-3.193524e-01 3.003987e-01 -2.814438e+00 53 47 42
-3.193524e-01 3.003987e-01 -2.814438e+00 53 47 42
-4.687781e-01 2.989426e-01 -2.819288e+00 137 120 122
2.276327e-01 2.634807e-01 -2.777565e+00 70 72 41
3.962770e-01 2.699276e-01 -2.780080e+00 79 79 77
-4.820289e-01 2.966275e-01 -2.819415e+00 132 125 118
-2.811367e-01 2.793058e-01 -2.812095e+00 158 150 141
-2.811367e-01 2.793058e-01 -2.812095e+00 158 150 141
-2.853046e-01 2.738360e-01 -2.811151e+00 50 48 45
-2.591099e-01 2.605063e-01 -2.797491e+00 128 38 8
-4.334788e-01 2.700779e-01 -2.813322e+00 183 167 154
-7.897113e-01 3.024165e-01 -2.828001e+00 76 67 75
4.348826e-01 2.409145e-01 -2.778498e+00 211 213 207
-2.581905e-01 2.319921e-01 -2.802133e+00 68 57 59
-2.613682e-01 2.319852e-01 -2.801914e+00 68 56 65
2.671282e-01 2.189775e-01 -2.774031e+00 110 112 88
-4.537394e-01 2.412211e-01 -2.808159e+00 23 15 30
2.662058e-01 2.089015e-01 -2.773246e+00 43 47 23
-5.122389e-02 1.891415e-01 -2.577404e+00 147 147 149
-5.149365e-01 2.287954e-01 -2.806527e+00 53 53 48
2.472523e-01 1.988313e-01 -2.770294e+00 81 87 76
-5.139270e-01 2.241027e-01 -2.805495e+00 42 42 41
-1.122202e+00 2.742564e-01 -2.876850e+00 68 62 46
8.062661e-03 1.725848e-01 -2.576069e+00 143 142 142
4.153346e-01 1.927311e-01 -2.782754e+00 44 47 62
4.518148e-01 1.922052e-01 -2.771486e+00 203 206 186
-1.109533e-01 1.717424e-01 -2.572133e+00 120 119 124
-1.177686e+00 2.648051e-01 -2.882931e+00 149 136 123
-3.903217e-01 1.846978e-01 -2.700757e+00 157 140 141
4.454344e-01 1.792704e-01 -2.770663e+00 169 166 170
4.807608e-01 1.779463e-01 -2.769597e+00 190 179 168
4.786347e-01 1.719830e-01 -2.771563e+00 173 167 164
-9.373635e-02 1.556303e-01 -2.570214e+00 66 67 71
-1.100320e+00 2.241888e-01 -2.870511e+00 109 89 83
-1.240887e+00 2.225926e-01 -2.881668e+00 41 38 49
-1.404376e-01 1.372678e-01 -2.608143e+00 213 206 200
-4.627966e-01 1.419251e-01 -2.708461e+00 155 154 150
-4.627966e-01 1.419251e-01 -2.708461e+00 155 154 150
-6.823497e-01 1.507644e-01 -2.720324e+00 170 170 154
-4.310124e-01 1.335088e-01 -2.706794e+00 141 139 140
4.179989e-01 1.239979e-01 -2.772984e+00 136 132 122
2.832330e-01 1.085220e-01 -2.757551e+00 39 48 30
2.862215e-01 9.956543e-02 -2.757468e+00 82 92 69
-1.137970e-01 9.798657e-02 -2.600505e+00 226 222 219
-1.127858e-01 9.131001e-02 -2.599805e+00 240 236 233
-7.881224e-01 1.077200e-01 -2.734496e+00 149 143 157
-1.298017e-02 8.840060e-02 -2.562450e+00 47 48 51
-5.305494e-03 8.468051e-02 -2.560565e+00 41 41 46
-5.305494e-03 8.468051e-02 -2.560565e+00 41 41 46
-6.132573e-02 8.235593e-02 -2.557967e+00 184 187 191
-4.635947e-01 8.407098e-02 -2.698609e+00 146 144 145
-4.643653e-01 8.029112e-02 -2.696671e+00 147 145 146
3.130817e-01 5.372450e-02 -2.750691e+00 36 44 28
-3.593902e-01 5.839824e-02 -2.658876e+00 35 36 48
-2.216477e-02 6.004604e-02 -2.523139e+00 204 199 203
-2.618331e-01 4.447929e-02 -2.760334e+00 166 166 169
-4.839031e-02 5.878570e-02 -2.518725e+00 188 187 186
-3.373334e-02 5.605030e-02 -2.520081e+00 164 168 171
-5.913251e-02 4.518571e-02 -2.518045e+00 201 199 201
-5.913251e-02 4.518571e-02 -2.518045e+00 201 199 201
7.399324e-01 2.915303e-02 -2.638528e+00 207 197 191
-2.457288e-01 5.075345e-03 -2.757348e+00 200 197 192
7.049682e-01 2.458062e-03 -2.755607e+00 234 223 222
-4.411927e-01 9.342126e-03 -2.677754e+00 53 44 36
-2.547781e-01 -3.202712e-03 -2.755748e+00 194 190 186
7.065497e-01 -2.310554e-04 -2.714971e+00 216 210 205
5.751949e-02 1.346038e-02 -2.591491e+00 43 63 82
4.046987e-02 6.675064e-03 -2.589451e+00 36 53 69
7.644930e-01 -5.538785e-03 -2.650706e+00 174 176 171
-4.181589e-01 -1.315688e-02 -2.676187e+00 167 152 155
-2.160778e-01 -2.498206e-02 -2.754627e+00 63 61 65
-2.160778e-01 -2.498206e-02 -2.754627e+00 63 61 65
-3.795183e-01 -2.297905e-02 -2.724759e+00 34 43 47
-3.795183e-01 -2.297905e-02 -2.724759e+00 34 43 47
8.022209e-01 -1.877340e-02 -2.640989e+00 210 194 226
-6.293974e-01 -3.337374e-02 -2.703697e+00 29 28 34
-3.979327e-01 -3.861170e-02 -2.723509e+00 182 184 197
7.224410e-01 -4.229649e-02 -2.632496e+00 192 170 166
3.787283e-02 -2.731533e-02 -2.580626e+00 37 32 32
-2.163414e-01 -6.730610e-02 -2.749780e+00 209 204 200
-2.132884e-01 -6.837396e-02 -2.750067e+00 205 201 197
5.273909e-01 -8.131856e-02 -2.750514e+00 172 166 151
5.591303e-01 -8.393620e-02 -2.752479e+00 102 87 90
7.320851e-01 -7.499413e-02 -2.655001e+00 245 245 247
-2.559029e-01 -8.874249e-02 -2.746314e+00 206 202 199
7.484997e-01 -7.271476e-02 -2.616829e+00 248 241 246
5.645798e-01 -8.786308e-02 -2.725974e+00 162 141 139
6.108907e-01 -1.030446e-01 -2.754645e+00 81 73 70
7.693552e-01 -7.683708e-02 -2.593886e+00 177 184 197
5.451606e-01 -1.011590e-01 -2.748660e+00 48 46 49
6.018879e-01 -1.055600e-01 -2.749537e+00 64 63 58
-4.419726e-01 -1.009018e-01 -2.718608e+00 25 31 28
7.692296e-01 -8.250978e-02 -2.575019e+00 196 189 205
6.334788e-01 -1.187523e-01 -2.751116e+00 167 160 144
-1.951078e-01 -1.102209e-01 -2.744104e+00 209 206 200
4.162510e-01 -1.140784e-01 -2.750573e+00 203 200 193
-2.767552e-01 -1.151455e-01 -2.742660e+00 204 201 196
7.025212e-01 -1.078358e-01 -2.663097e+00 189 170 144
2.213245e-01 -9.389482e-02 -2.654227e+00 131 131 121
6.408769e-01 -1.294775e-01 -2.750231e+00 182 173 159
6.181525e-01 -1.305864e-01 -2.747971e+00 168 161 151
6.181525e-01 -1.305864e-01 -2.747971e+00 168 161 151
-6.996922e-02 -1.119661e-01 -2.708697e+00 134 114 105
7.162652e-01 -1.104691e-01 -2.624354e+00 202 194 191
-2.032429e-01 -1.363842e-01 -2.742110e+00 212 205 197
7.082738e-01 -1.193784e-01 -2.618126e+00 216 218 222
-1.777905e-01 -1.387597e-01 -2.742781e+00 209 201 188
6.722762e-01 -1.369627e-01 -2.683166e+00 105 117 139
2.760000e-01 -1.191215e-01 -2.656371e+00 189 186 179
6.137405e-01 -1.559548e-01 -2.742994e+00 67 64 54
6.077239e-01 -1.565874e-01 -2.742098e+00 64 62 57
-4.583144e-02 -1.376838e-01 -2.705756e+00 124 100 94
2.742734e-01 -1.259604e-01 -2.655804e+00 133 126 133
6.662915e-01 -1.451744e-01 -2.656889e+00 217 168 193
6.666179e-01 -1.450041e-01 -2.653333e+00 63 31 38
6.666179e-01 -1.450041e-01 -2.653333e+00 63 31 38
2.746732e-01 -1.295190e-01 -2.654213e+00 81 37 54
6.315973e-01 -1.709238e-01 -2.734928e+00 211 208 201
6.360997e-01 -1.742498e-01 -2.734560e+00 195 193 193
6.513573e-01 -1.668497e-01 -2.672926e+00 222 232 233
2.729872e-01 -1.483101e-01 -2.655683e+00 187 185 174
2.019041e-01 -1.372557e-01 -2.616458e+00 200 210 222
-3.933635e-01 -1.862110e-01 -2.726920e+00 158 157 163
3.846632e-01 -1.967387e-01 -2.739178e+00 173 171 181
-5.248336e-01 -2.227816e-01 -2.744635e+00 93 93 104
-3.726470e-01 -2.044671e-01 -2.719631e+00 147 148 137
-2.710540e-01 -2.117428e-01 -2.734247e+00 201 196 192
-2.360918e-01 -2.140733e-01 -2.733922e+00 206 204 191
-3.142187e-01 -2.170521e-01 -2.728658e+00 193 192 199
-5.087090e-01 -2.512062e-01 -2.752507e+00 25 19 15
9.069412e-01 -2.525396e-01 -2.644330e+00 237 238 228
9.069412e-01 -2.525396e-01 -2.644330e+00 237 238 228
9.069412e-01 -2.525396e-01 -2.644330e+00 237 238 228
9.022007e-01 -2.751537e-01 -2.683009e+00 250 244 239
7.569735e-01 -2.803403e-01 -2.732722e+00 109 112 83
8.873481e-01 -2.884153e-01 -2.712593e+00 205 199 207
-4.579243e-01 -2.641366e-01 -2.711886e+00 132 128 128
-4.966202e-01 -2.687968e-01 -2.711330e+00 186 175 185
8.931126e-01 -2.691066e-01 -2.639454e+00 229 230 229
7.332133e-01 -2.883132e-01 -2.729124e+00 126 117 106
8.848038e-01 -2.947084e-01 -2.672657e+00 236 243 231
7.614946e-01 -3.049702e-01 -2.732707e+00 200 193 200
8.734219e-01 -3.026225e-01 -2.666956e+00 232 238 247
8.672148e-01 -3.151145e-01 -2.683018e+00 47 49 68
8.672148e-01 -3.151145e-01 -2.683018e+00 47 49 68
2.901435e-01 -2.732960e-01 -2.689716e+00 214 204 198
9.271161e-01 -3.236979e-01 -2.645924e+00 216 229 213
9.300209e-01 -3.213453e-01 -2.637722e+00 87 95 140
9.172498e-01 -3.279484e-01 -2.649065e+00 102 86 105
9.230471e-01 -3.286113e-01 -2.642256e+00 133 147 146
9.236552e-01 -3.269858e-01 -2.634751e+00 97 107 148
6.926998e-01 -3.284463e-01 -2.692602e+00 114 118 116
9.153817e-01 -3.357611e-01 -2.641011e+00 219 230 220
6.954708e-01 -3.282832e-01 -2.681370e+00 171 171 166
-1.638378e-01 -2.864772e-01 -2.637565e+00 157 159 175
-2.012271e-01 -2.825083e-01 -2.615200e+00 15 11 16
-2.012271e-01 -2.825083e-01 -2.615200e+00 15 11 16
6.717465e-01 -3.439520e-01 -2.685813e+00 135 151 174
6.875651e-01 -3.374040e-01 -2.659626e+00 145 144 160
4.262384e-02 -2.931540e-01 -2.653769e+00 175 175 182
2.425029e-01 -3.195561e-01 -2.705475e+00 183 190 172
-1.341936e-01 -3.109654e-01 -2.666229e+00 26 27 31
6.249900e-01 -3.735131e-01 -2.734312e+00 176 175 167
2.373914e-01 -3.286457e-01 -2.702944e+00 202 180 157
8.285211e-01 -3.688557e-01 -2.644611e+00 229 229 222
-9.459028e-02 -3.799248e-01 -2.714098e+00 25 27 25
7.392102e-01 -3.830427e-01 -2.598818e+00 211 210 206
1.537485e-01 -3.884167e-01 -2.716561e+00 168 158 152
4.915947e-01 -4.106059e-01 -2.715713e+00 165 173 176
2.071037e-01 -3.884738e-01 -2.708303e+00 223 232 239
-1.861946e-01 -3.553257e-01 -2.625665e+00 40 41 62
7.829691e-01 -4.025851e-01 -2.598930e+00 207 208 206
2.224330e-01 -3.476550e-01 -2.622562e+00 128 151 159
-2.307607e-01 -3.739426e-01 -2.629184e+00 183 179 180
-2.357892e-01 -3.919414e-01 -2.611577e+00 156 168 169
5.073187e-01 -4.788684e-01 -2.734465e+00 140 139 122
2.405522e-01 -4.263953e-01 -2.667591e+00 222 209 209
2.403655e-01 -4.284105e-01 -2.650820e+00 160 175 180
4.222397e-01 -4.831551e-01 -2.692172e+00 98 89 119
2.281551e-01 -4.389819e-01 -2.626164e+00 53 60 67
-2.792536e-01 -4.525805e-01 -2.599881e+00 39 42 56
-2.792536e-01 -4.525805e-01 -2.599881e+00 39 42 56
-3.091427e-01 -4.701615e-01 -2.591720e+00 23 31 40
-2.867755e-01 -4.744794e-01 -2.601692e+00 152 154 141
4.351233e-01 -5.055634e-01 -2.648288e+00 110 110 119
2.327416e-01 -5.093500e-01 -2.675290e+00 29 36 29
4.278388e-01 -5.104197e-01 -2.646129e+00 104 104 115
4.095666e-01 -5.264406e-01 -2.668783e+00 176 171 190
-2.746525e-01 -4.831471e-01 -2.587967e+00 215 217 212
-2.968246e-01 -4.993804e-01 -2.598622e+00 201 201 204
-2.968246e-01 -4.993804e-01 -2.598622e+00 201 201 204
4.279837e-01 -5.144017e-01 -2.633725e+00 188 182 186
-3.673228e-01 -5.061267e-01 -2.582269e+00 165 167 154
4.106485e-01 -5.263086e-01 -2.645420e+00 108 113 113
-3.129739e-01 -5.039909e-01 -2.588258e+00 183 177 187
4.138540e-01 -5.237583e-01 -2.630332e+00 180 169 179
-4.301483e-01 -5.236085e-01 -2.550569e+00 99 110 110
-3.086639e-01 -5.203475e-01 -2.584220e+00 11 14 21
1.981642e-02 -5.529885e-01 -2.675972e+00 42 37 42
3.920080e-01 -5.410025e-01 -2.634913e+00 85 77 70
2.058539e-01 -5.628485e-01 -2.662903e+00 198 145 102
2.186854e-01 -5.691021e-01 -2.663202e+00 179 116 90
-6.386735e-03 6.700061e-01 -2.812851e+00 236 230 228
4.894631e-01 6.962230e-01 -2.806139e+00 109 107 104
1.855298e-02 6.634868e-01 -2.836000e+00 152 130 134
5.755634e-01 6.457555e-01 -2.730049e+00 188 188 179
1.761489e-01 6.462204e-01 -2.832025e+00 108 104 122
5.043771e-01 6.327017e-01 -2.741700e+00 247 239 248
1.407242e-02 6.444067e-01 -2.836263e+00 216 205 205
2.983046e-01 6.506229e-01 -2.841231e+00 179 167 168
3.031859e-01 6.462700e-01 -2.846960e+00 89 87 91
6.232796e-01 6.421384e-01 -2.739124e+00 114 121 118
6.687038e-01 6.300336e-01 -2.709023e+00 44 50 73
6.504066e-01 6.220174e-01 -2.703685e+00 70 76 110
2.010848e-01 6.154040e-01 -2.829688e+00 47 44 56
6.430159e-01 6.140945e-01 -2.717793e+00 57 47 86
-4.528780e-02 6.237184e-01 -2.861612e+00 179 175 168
-5.057381e-02 6.102804e-01 -2.858459e+00 67 76 77
5.527635e-01 5.730808e-01 -2.729503e+00 190 185 191
-1.423302e-01 5.844322e-01 -2.849907e+00 36 43 53
-1.311432e-01 5.833858e-01 -2.849206e+00 61 65 76
-1.065815e-01 5.774836e-01 -2.849562e+00 146 149 156
-1.270186e-01 5.760497e-01 -2.843208e+00 98 105 112
2.047912e-01 5.625621e-01 -2.832137e+00 110 109 107
-1.252676e-01 5.773279e-01 -2.849243e+00 40 44 52
-1.589378e-01 5.742159e-01 -2.845787e+00 28 34 45
-1.100215e-01 5.700891e-01 -2.847848e+00 152 158 157
2.840455e-01 5.402861e-01 -2.787637e+00 209 202 200
6.470791e-02 5.347489e-01 -2.788582e+00 186 182 181
2.996950e-01 5.366506e-01 -2.782103e+00 247 237 240
1.753747e-02 5.434199e-01 -2.821062e+00 29 31 29
-6.552850e-02 5.413844e-01 -2.818752e+00 99 102 111
-1.880839e-02 5.312401e-01 -2.836484e+00 137 139 144
-1.680206e-01 5.329179e-01 -2.837162e+00 48 52 64
6.192152e-01 5.182604e-01 -2.711139e+00 247 246 250
6.192152e-01 5.182604e-01 -2.711139e+00 247 246 250
9.585355e-02 4.877082e-01 -2.779847e+00 166 165 160
9.619460e-02 4.762070e-01 -2.779768e+00 131 127 128
9.619460e-02 4.762070e-01 -2.779768e+00 131 127 128
1.276432e-01 4.746603e-01 -2.784030e+00 158 154 153
2.160031e-02 4.672646e-01 -2.774658e+00 153 149 148
7.356983e-02 4.675151e-01 -2.777413e+00 154 150 149
1.357131e-01 4.667412e-01 -2.780503e+00 167 166 164
1.371063e-01 4.593655e-01 -2.780277e+00 154 150 147
7.163904e-01 4.929718e-01 -2.704550e+00 242 240 223
5.510612e-01 4.801009e-01 -2.770698e+00 68 74 66
2.988086e-01 4.595586e-01 -2.791343e+00 86 85 100
7.225540e-01 4.842312e-01 -2.703927e+00 223 214 207
1.335093e-01 4.430763e-01 -2.778053e+00 154 150 149
2.433422e-01 4.529661e-01 -2.804861e+00 143 126 107
-5.543405e-01 4.758553e-01 -2.687343e+00 45 35 34
-2.297537e-02 4.524849e-01 -2.825468e+00 173 162 150
5.369314e-01 4.679785e-01 -2.795901e+00 114 104 98
-3.091791e-01 4.460707e-01 -2.742815e+00 16 19 10
2.417695e-01 4.390671e-01 -2.820578e+00 73 62 58
2.417695e-01 4.390671e-01 -2.820578e+00 73 62 58
5.700997e-01 4.500070e-01 -2.769107e+00 44 42 43
5.718861e-01 4.482058e-01 -2.771616e+00 253 253 255
-5.083635e-01 4.485042e-01 -2.719078e+00 188 177 193
5.097418e-01 4.227500e-01 -2.796874e+00 171 164 158
2.959048e-01 4.041973e-01 -2.800121e+00 208 195 185
-6.306164e-01 4.516823e-01 -2.720283e+00 107 101 113
-5.844311e-02 4.056534e-01 -2.813695e+00 155 158 154
-6.331561e-01 4.491121e-01 -2.717742e+00 216 206 213
-6.243201e-01 4.479569e-01 -2.721771e+00 46 33 64
-6.344549e-01 4.422973e-01 -2.718781e+00 45 44 37
-5.714070e-01 4.288209e-01 -2.715128e+00 185 178 160
2.508919e-01 3.936457e-01 -2.814955e+00 110 99 95
-5.349027e-01 4.181382e-01 -2.710721e+00 198 199 163
-2.112786e-01 3.991305e-01 -2.798170e+00 157 167 175
-6.061062e-01 4.313912e-01 -2.717514e+00 46 50 45
2.441700e-01 3.887382e-01 -2.813994e+00 149 143 144
-2.874987e-01 4.102911e-01 -2.833735e+00 167 154 139
-3.502413e-01 4.133235e-01 -2.824831e+00 29 33 34
-3.520070e-01 4.098872e-01 -2.827577e+00 24 25 28
-2.994710e-01 4.049854e-01 -2.833899e+00 115 110 99
2.923522e-01 3.716004e-01 -2.771308e+00 211 223 231
-3.143833e-01 4.052189e-01 -2.833701e+00 104 104 100
-2.745442e-01 4.010040e-01 -2.831723e+00 63 64 59
-2.957283e-01 3.920714e-01 -2.829751e+00 68 72 75
1.092090e-01 3.511356e-01 -2.752584e+00 180 179 175
-2.429011e-01 3.818677e-01 -2.829311e+00 178 166 154
7.211231e-01 3.774972e-01 -2.687049e+00 175 172 167
-3.391461e-01 3.805712e-01 -2.829633e+00 93 89 79
6.466363e-01 3.610624e-01 -2.700677e+00 190 188 194
4.918721e-01 3.646938e-01 -2.808455e+00 115 119 85
3.476154e-02 3.435813e-01 -2.802928e+00 172 162 148
-3.824514e-01 3.739570e-01 -2.825819e+00 42 37 42
-4.569010e-01 3.776838e-01 -2.812592e+00 21 27 34
-3.052628e-01 3.633492e-01 -2.827130e+00 67 68 73
-2.705908e-01 3.509199e-01 -2.824530e+00 76 71 77
-2.610659e-01 3.311457e-01 -2.821701e+00 146 137 138
-8.873122e-02 3.092267e-01 -2.776085e+00 151 134 136
-4.653053e-01 3.416795e-01 -2.826210e+00 33 33 35
-2.648222e-01 3.212853e-01 -2.819083e+00 90 80 69
1.361548e-01 2.830806e-01 -2.772984e+00 199 199 201
4.638733e-01 2.825576e-01 -2.759803e+00 248 247 246
-2.693970e-01 2.905317e-01 -2.813169e+00 72 67 63
-4.446732e-01 3.034145e-01 -2.818794e+00 131 118 105
2.335411e-01 2.712075e-01 -2.782953e+00 160 159 138
4.669904e-01 2.771544e-01 -2.763104e+00 253 251 253
-4.763737e-01 2.860485e-01 -2.817388e+00 179 165 162
3.726019e-01 2.593355e-01 -2.791384e+00 146 144 131
-2.259224e-01 2.642566e-01 -2.806554e+00 56 21 32
-2.259224e-01 2.642566e-01 -2.806554e+00 56 21 32
4.622410e-01 2.286122e-01 -2.734721e+00 211 193 194
-3.389796e-01 2.377845e-01 -2.805109e+00 155 146 142
2.787491e-01 2.168835e-01 -2.775866e+00 34 37 14
-4.484844e-01 2.376355e-01 -2.810370e+00 52 63 45
-5.114701e-01 2.417003e-01 -2.807898e+00 146 137 130
-3.881346e-01 2.307782e-01 -2.807256e+00 190 176 167
4.411610e-01 2.168494e-01 -2.773957e+00 115 116 120
3.904333e-01 2.146718e-01 -2.783623e+00 184 193 199
3.904333e-01 2.146718e-01 -2.783623e+00 184 193 199
-6.294314e-02 1.912556e-01 -2.577685e+00 146 141 145
2.574824e-02 1.866544e-01 -2.575115e+00 169 165 163
2.243009e-01 1.965691e-01 -2.722678e+00 23 27 21
1.214215e-02 1.807576e-01 -2.579909e+00 151 150 146
4.528599e-01 1.948222e-01 -2.772551e+00 204 205 193
-5.732003e-01 2.170599e-01 -2.807281e+00 39 38 43
-3.070494e-03 1.719471e-01 -2.576412e+00 167 167 167
-1.192155e+00 2.764591e-01 -2.882966e+00 107 95 81
4.139341e-01 1.853811e-01 -2.780778e+00 70 83 99
-5.622373e-01 1.968288e-01 -2.805098e+00 39 41 47
3.237720e-02 1.561447e-01 -2.575286e+00 140 139 137
4.834223e-01 1.746277e-01 -2.771035e+00 188 182 170
4.655985e-01 1.731825e-01 -2.769961e+00 212 213 198
-9.510422e-01 2.195842e-01 -2.784628e+00 94 94 74
1.599130e-03 1.521468e-01 -2.573192e+00 131 132 130
-1.086587e+00 2.291140e-01 -2.870125e+00 91 79 78
-8.747445e-01 2.096686e-01 -2.829173e+00 25 27 40
-8.681029e-01 2.034898e-01 -2.826616e+00 32 37 53
1.336811e-02 1.472266e-01 -2.573154e+00 134 134 133
-1.190734e+00 2.294537e-01 -2.876398e+00 70 59 66
-4.241121e-01 1.589240e-01 -2.709447e+00 152 150 149
-5.762900e-01 1.667432e-01 -2.764634e+00 122 134 151
-4.824357e-01 1.435975e-01 -2.699390e+00 37 37 39
-1.580582e-01 1.151744e-01 -2.603656e+00 220 216 216
-4.428061e-01 1.206116e-01 -2.704157e+00 202 201 196
-4.427765e-01 1.205731e-01 -2.704347e+00 202 201 196
-7.355854e-01 1.248659e-01 -2.726389e+00 179 180 172
4.105525e-01 1.024319e-01 -2.758695e+00 216 169 151
4.105525e-01 1.024319e-01 -2.758695e+00 216 169 151
-7.452995e-01 1.158439e-01 -2.725856e+00 160 162 157
5.005198e-02 9.458841e-02 -2.565355e+00 173 172 168
1.376217e-01 5.577364e-02 -2.637196e+00 190 150 150
-3.769923e-01 4.770767e-02 -2.659637e+00 127 128 131
-1.376196e-02 4.969720e-02 -2.520345e+00 130 131 130
-7.524780e-01 2.602227e-02 -2.753529e+00 251 248 245
3.782141e-01 1.144080e-02 -2.750442e+00 146 150 111
-2.031609e-01 9.953081e-03 -2.758015e+00 168 163 153
7.052374e-01 5.122921e-03 -2.765113e+00 212 208 188
4.736170e-01 -1.134220e-02 -2.755978e+00 148 126 114
1.186549e-01 -4.579409e-03 -2.613844e+00 167 151 146
-5.761127e-01 -5.793220e-02 -2.782863e+00 16 17 21
4.786071e-01 -5.041573e-02 -2.752849e+00 159 154 112
6.238861e-01 -6.227962e-02 -2.746925e+00 163 146 129
6.207707e-01 -6.428717e-02 -2.743813e+00 168 152 133
7.351194e-01 -7.079929e-02 -2.663254e+00 191 174 175
7.351194e-01 -7.079929e-02 -2.663254e+00 191 174 175
5.618598e-01 -8.441866e-02 -2.752554e+00 183 165 151
5.572932e-01 -8.946357e-02 -2.741487e+00 155 126 122
6.489729e-01 -8.361207e-02 -2.689418e+00 170 140 136
7.379887e-01 -8.473663e-02 -2.615203e+00 244 249 253
4.474092e-01 -1.020697e-01 -2.744176e+00 37 40 46
4.525316e-01 -1.081171e-01 -2.745760e+00 44 47 29
5.342568e-01 -1.079748e-01 -2.734268e+00 181 158 137
7.697462e-01 -8.686219e-02 -2.566271e+00 181 189 184
4.068176e-01 -1.159713e-01 -2.751854e+00 75 78 90
4.068176e-01 -1.159713e-01 -2.751854e+00 75 78 90
6.893516e-01 -1.176528e-01 -2.660053e+00 155 151 147
2.622913e-01 -1.092997e-01 -2.656310e+00 190 187 180
7.014346e-01 -1.284537e-01 -2.605474e+00 244 253 249
1.646373e-01 -1.138993e-01 -2.614744e+00 191 208 228
6.297089e-01 -1.767196e-01 -2.735474e+00 164 157 151
9.010671e-01 -2.057936e-01 -2.706943e+00 61 60 69
6.407691e-01 -2.058119e-01 -2.739035e+00 155 147 136
-4.925742e-01 -2.227748e-01 -2.758814e+00 172 163 158
9.362445e-02 -1.570298e-01 -2.618334e+00 141 155 164
6.276135e-01 -2.139982e-01 -2.718936e+00 231 237 235
8.725630e-01 -2.771556e-01 -2.720092e+00 201 201 165
9.036272e-01 -2.682425e-01 -2.681024e+00 242 232 230
-1.340660e-01 -2.123325e-01 -2.646751e+00 189 188 186
-1.340660e-01 -2.123325e-01 -2.646751e+00 189 188 186
-1.409782e-01 -2.166635e-01 -2.645010e+00 186 187 189
-1.287968e-01 -2.170337e-01 -2.646686e+00 178 176 174
-1.287968e-01 -2.170337e-01 -2.646686e+00 178 176 174
-4.542298e-01 -2.636490e-01 -2.710664e+00 173 171 154
7.468342e-01 -2.815437e-01 -2.730795e+00 179 169 162
8.820449e-01 -2.945622e-01 -2.707577e+00 140 141 154
-2.857407e-01 -2.678863e-01 -2.727955e+00 40 50 60
8.803540e-01 -3.004969e-01 -2.699831e+00 213 224 226
-1.808885e-01 -2.291805e-01 -2.630848e+00 97 101 99
8.874347e-01 -2.949901e-01 -2.671203e+00 147 153 167
8.849983e-01 -2.957436e-01 -2.665077e+00 220 227 232
7.564911e-01 -3.074975e-01 -2.731126e+00 214 203 207
-4.235227e-01 -2.852141e-01 -2.705562e+00 152 151 149
8.849166e-01 -3.009119e-01 -2.632119e+00 113 91 106
-3.680244e-01 -2.997555e-01 -2.710632e+00 144 144 148
6.037714e-01 -3.033265e-01 -2.706953e+00 190 173 176
6.027957e-01 -3.224206e-01 -2.745035e+00 184 174 162
6.027957e-01 -3.224206e-01 -2.745035e+00 184 174 162
-4.014429e-01 -3.075776e-01 -2.707570e+00 165 160 155
6.911886e-01 -3.262607e-01 -2.717215e+00 203 199 198
9.244633e-01 -3.267278e-01 -2.643853e+00 232 244 236
6.738353e-01 -3.427222e-01 -2.694829e+00 207 201 215
9.014083e-01 -3.517282e-01 -2.640937e+00 171 159 151
6.199942e-01 -3.582918e-01 -2.739081e+00 184 177 165
6.199942e-01 -3.582918e-01 -2.739081e+00 184 177 165
7.028316e-01 -3.237648e-01 -2.633608e+00 193 187 181
7.038787e-01 -3.232400e-01 -2.626810e+00 191 186 186
2.498249e-01 -3.160350e-01 -2.693477e+00 147 157 164
6.747597e-01 -3.419937e-01 -2.658357e+00 145 144 163
-1.348545e-01 -3.030560e-01 -2.640494e+00 72 71 85
1.935894e-01 -3.379623e-01 -2.723326e+00 180 172 171
6.857528e-01 -3.373908e-01 -2.625546e+00 210 205 220
2.038827e-01 -3.462699e-01 -2.703274e+00 170 189 207
-3.264826e-01 -3.337189e-01 -2.629698e+00 42 48 73
-2.663740e-01 -3.349456e-01 -2.633633e+00 145 146 150
-4.997793e-02 -3.644422e-01 -2.719244e+00 25 27 18
-1.489274e-01 -3.206379e-01 -2.619454e+00 16 29 36
6.843247e-01 -3.551253e-01 -2.591232e+00 184 196 208
-1.605952e-01 -3.273150e-01 -2.613140e+00 197 185 195
-1.125420e-01 -3.770413e-01 -2.713227e+00 33 39 29
1.131675e-01 -3.805481e-01 -2.716915e+00 104 103 111
-1.704473e-01 -3.611654e-01 -2.630277e+00 87 93 122
-1.684314e-01 -3.632768e-01 -2.630884e+00 74 93 120
-3.804252e-01 -3.765447e-01 -2.604932e+00 35 37 57
1.922671e-01 -4.009413e-01 -2.705712e+00 221 239 240
-1.697242e-01 -3.704889e-01 -2.627782e+00 23 20 45
6.883809e-01 -4.178461e-01 -2.578142e+00 155 168 186
2.069601e-01 -4.128007e-01 -2.658542e+00 54 51 58
-5.040169e-01 -4.525552e-01 -2.585254e+00 116 135 119
1.511942e-01 -4.368855e-01 -2.662952e+00 20 27 20
4.414190e-01 -4.807845e-01 -2.697797e+00 185 175 173
-3.717876e-01 -4.818835e-01 -2.597558e+00 32 31 52
4.305130e-01 -5.078144e-01 -2.671405e+00 183 179 183
5.269263e-02 -5.068976e-01 -2.698944e+00 40 45 49
-5.382435e-02 -5.078803e-01 -2.689898e+00 41 39 43
-3.046069e-01 -4.725050e-01 -2.590474e+00 41 39 50
-4.188321e-02 -5.154377e-01 -2.696745e+00 15 16 20
4.425825e-01 -5.019733e-01 -2.643689e+00 147 137 136
1.696076e-01 -4.986249e-01 -2.672454e+00 79 66 30
-3.022802e-01 -4.822780e-01 -2.597475e+00 141 142 136
2.223230e-01 -5.024024e-01 -2.672282e+00 23 28 24
4.147192e-01 -5.213122e-01 -2.665336e+00 62 61 90
4.454929e-01 -4.978902e-01 -2.623363e+00 162 139 142
-3.235780e-01 -4.930804e-01 -2.598102e+00 191 192 187
2.353608e-01 -5.105293e-01 -2.673352e+00 108 116 102
-2.728820e-01 -4.819030e-01 -2.591659e+00 203 198 208
4.277924e-02 -5.206813e-01 -2.685826e+00 131 127 124
-2.934270e-01 -5.011252e-01 -2.596594e+00 36 32 63
-2.934270e-01 -5.011252e-01 -2.596594e+00 36 32 63
7.922411e-02 -5.179979e-01 -2.665919e+00 127 128 130
3.981843e-02 -5.252383e-01 -2.674392e+00 172 171 176
-3.161515e-01 -5.085361e-01 -2.590080e+00 50 46 62
3.805784e-02 -5.292398e-01 -2.661747e+00 25 31 28
3.694722e-01 -5.526087e-01 -2.661688e+00 187 174 154
-3.046097e-01 -5.176307e-01 -2.583809e+00 189 188 197
-3.046097e-01 -5.176307e-01 -2.583809e+00 189 188 197
2.183475e-02 -5.532435e-01 -2.667037e+00 134 131 135
-3.786914e-01 -5.355332e-01 -2.568482e+00 172 141 148
1.081937e-01 -5.782749e-01 -2.690460e+00 170 164 162
5.824389e-03 -5.758603e-01 -2.672563e+00 31 31 33
7.803093e-03 -5.782923e-01 -2.671486e+00 189 184 185
1.595211e-01 6.705482e-01 -2.809208e+00 222 196 184
1.798641e-02 6.589809e-01 -2.827299e+00 159 141 137
1.711784e-01 6.509624e-01 -2.821999e+00 233 230 236
1.711784e-01 6.509624e-01 -2.821999e+00 233 230 236
1.589521e-01 6.646038e-01 -2.852517e+00 224 199 172
5.720826e-01 6.478279e-01 -2.728946e+00 181 182 174
1.061710e-01 6.602348e-01 -2.857370e+00 184 179 168
1.699453e-01 6.483834e-01 -2.833417e+00 238 235 243
1.134697e-01 6.530374e-01 -2.850597e+00 193 191 181
1.789805e-01 6.487709e-01 -2.844363e+00 245 240 248
5.082734e-01 6.309758e-01 -2.736378e+00 249 247 252
1.731453e-01 6.396339e-01 -2.842643e+00 76 71 55
5.942966e-01 6.281197e-01 -2.728202e+00 201 207 209
1.430618e-01 6.143333e-01 -2.831137e+00 177 186 191
1.551298e-01 6.107835e-01 -2.831216e+00 163 173 184
1.211847e-01 6.015237e-01 -2.841643e+00 191 185 180
-4.128309e-02 6.030873e-01 -2.857624e+00 170 171 168
-7.118653e-02 6.006342e-01 -2.855032e+00 163 158 166
-6.737272e-02 5.956899e-01 -2.848618e+00 62 65 74
-1.366829e-01 5.786273e-01 -2.848167e+00 37 41 52
-1.514917e-01 5.749542e-01 -2.842195e+00 29 33 45
-1.153759e-01 5.734048e-01 -2.846081e+00 76 80 89
-1.153759e-01 5.734048e-01 -2.846081e+00 76 80 89
-9.686373e-02 5.658272e-01 -2.846998e+00 183 178 178
2.317913e-01 5.462641e-01 -2.831918e+00 176 172 169
1.789241e-02 5.403066e-01 -2.827855e+00 177 166 167
-4.241072e-01 5.408626e-01 -2.709029e+00 219 227 230
-5.074284e-01 5.436689e-01 -2.699012e+00 250 253 237
-4.317554e-01 5.217869e-01 -2.700253e+00 95 90 84
-7.270256e-02 5.250714e-01 -2.838714e+00 50 54 64
2.399889e-01 5.118607e-01 -2.821179e+00 172 165 162
3.626143e-02 4.885959e-01 -2.779988e+00 156 152 151
-4.026866e-01 5.007436e-01 -2.695432e+00 147 133 125
-8.682650e-02 5.042391e-01 -2.830723e+00 47 57 67
-1.542781e-01 5.074970e-01 -2.831872e+00 36 44 55
-6.767799e-02 4.957597e-01 -2.831359e+00 59 69 83
-5.532412e-01 5.064580e-01 -2.693284e+00 94 91 93
-5.532412e-01 5.064580e-01 -2.693284e+00 94 91 93
3.016730e-01 4.586541e-01 -2.789693e+00 236 238 237
-5.549883e-01 4.870647e-01 -2.689921e+00 140 132 114
-5.549883e-01 4.870647e-01 -2.689921e+00 140 132 114
5.573376e-01 4.677095e-01 -2.760636e+00 110 103 100
5.573376e-01 4.677095e-01 -2.760636e+00 110 103 100
-2.827902e-01 4.515298e-01 -2.744476e+00 21 24 16
-5.559377e-01 4.724210e-01 -2.689402e+00 90 80 78
-1.724828e-01 4.470536e-01 -2.800944e+00 145 135 126
5.376869e-01 4.560967e-01 -2.779741e+00 182 171 176
-1.983656e-01 4.443843e-01 -2.805397e+00 162 166 170
-2.172997e-01 4.438494e-01 -2.806483e+00 161 133 143
9.641135e-02 4.155321e-01 -2.768879e+00 174 173 171
-2.235623e-01 4.313729e-01 -2.804710e+00 174 173 189
1.241064e-01 3.950776e-01 -2.762633e+00 169 168 166
-6.180275e-01 4.554667e-01 -2.722884e+00 116 123 129
3.364589e-01 4.078596e-01 -2.796724e+00 224 223 223
6.029772e-02 3.847002e-01 -2.757771e+00 163 163 159
-3.429240e-01 4.195450e-01 -2.832358e+00 28 29 29
-3.059585e-01 4.136566e-01 -2.836580e+00 142 133 116
-3.309344e-01 4.145376e-01 -2.834911e+00 73 67 61
-1.849337e-01 3.915236e-01 -2.796885e+00 174 164 165
-1.849337e-01 3.915236e-01 -2.796885e+00 174 164 165
2.385919e-01 3.850609e-01 -2.811193e+00 153 142 144
2.385919e-01 3.850609e-01 -2.811193e+00 153 142 144
1.144785e-01 3.667109e-01 -2.757417e+00 176 177 172
-2.933412e-01 4.064511e-01 -2.833739e+00 72 68 58
-5.227529e-01 4.037418e-01 -2.710291e+00 61 56 75
-5.227529e-01 4.037418e-01 -2.710291e+00 61 56 75
-5.260569e-01 4.013188e-01 -2.711017e+00 47 54 76
-5.260569e-01 4.013188e-01 -2.711017e+00 47 54 76
3.110015e-01 3.634648e-01 -2.772008e+00 205 214 224
1.186845e-01 3.396200e-01 -2.752630e+00 35 35 35
1.186845e-01 3.396200e-01 -2.752630e+00 35 35 35
6.321572e-01 3.662804e-01 -2.737106e+00 252 253 250
-1.027142e-01 3.387780e-01 -2.779096e+00 173 173 176
-4.824766e-01 3.706872e-01 -2.806362e+00 22 23 29
1.178993e-01 3.126056e-01 -2.747859e+00 173 176 175
4.665111e-01 3.367872e-01 -2.796039e+00 195 185 187
4.525308e-01 3.294523e-01 -2.793962e+00 116 112 104
2.203710e-01 3.123164e-01 -2.789503e+00 125 121 105
-5.603840e-02 3.070197e-01 -2.765773e+00 168 130 141
-4.601563e-01 3.435108e-01 -2.827528e+00 40 36 41
-2.806498e-01 3.239626e-01 -2.819818e+00 156 146 144
2.986967e-01 2.977218e-01 -2.772531e+00 101 127 155
3.592888e-01 2.965487e-01 -2.778975e+00 172 168 161
1.764257e-01 2.761217e-01 -2.780125e+00 100 95 66
-4.351884e-01 3.006497e-01 -2.817210e+00 117 104 88
3.737375e-01 2.638533e-01 -2.791804e+00 188 184 177
-4.647806e-01 2.885039e-01 -2.817456e+00 174 156 152
3.829306e-01 2.498617e-01 -2.788037e+00 185 182 170
2.859525e-01 2.400049e-01 -2.782528e+00 117 121 97
1.955714e-01 2.357595e-01 -2.773112e+00 24 33 32
2.781498e-01 2.319019e-01 -2.777236e+00 32 39 28
2.222647e-01 2.266815e-01 -2.776127e+00 91 98 79
-1.240138e-02 1.968580e-01 -2.579754e+00 136 136 134
-5.273951e-01 2.325734e-01 -2.808928e+00 41 41 42
-5.549394e-01 2.114427e-01 -2.803368e+00 37 42 47
-3.405258e-02 1.659096e-01 -2.574029e+00 153 154 156
-1.193836e+00 2.490979e-01 -2.881123e+00 51 50 46
-6.221992e-01 1.926565e-01 -2.767883e+00 58 58 68
-6.883813e-02 1.548735e-01 -2.570291e+00 139 139 140
-1.248475e+00 2.409024e-01 -2.885238e+00 56 46 58
-5.934133e-01 1.816821e-01 -2.768727e+00 43 50 68
-8.677656e-01 1.921407e-01 -2.824905e+00 163 175 179
-4.885559e-02 1.410521e-01 -2.569537e+00 134 133 133
-4.192925e-01 1.555361e-01 -2.707935e+00 150 146 147
-2.712451e-01 1.482616e-01 -2.787025e+00 44 43 48
-5.831025e-01 1.628118e-01 -2.761754e+00 57 69 90
-1.152320e+00 2.026042e-01 -2.868787e+00 73 72 67
-8.715746e-01 1.671261e-01 -2.822175e+00 124 116 94
4.078724e-03 1.249602e-01 -2.567252e+00 136 136 138
5.146684e-01 1.318988e-01 -2.745951e+00 151 105 100
-8.756169e-01 1.628348e-01 -2.817097e+00 189 193 204
-4.483040e-01 1.280696e-01 -2.706331e+00 195 193 195
-4.206501e-01 1.187187e-01 -2.703065e+00 152 147 146
-2.019774e-02 1.034550e-01 -2.564672e+00 133 133 133
-3.382978e-01 9.186415e-02 -2.663518e+00 145 144 149
-7.501904e-01 1.038475e-01 -2.722511e+00 74 71 81
-3.429950e-01 8.635228e-02 -2.662309e+00 133 134 138
-7.827139e-01 9.521439e-02 -2.727314e+00 167 159 178
7.431866e-01 6.689408e-02 -2.722574e+00 203 201 206
7.550144e-01 5.611344e-02 -2.721596e+00 135 133 138
-2.619674e-01 4.688534e-02 -2.760874e+00 85 85 96
-3.830753e-02 5.950029e-02 -2.520748e+00 125 125 123
-3.496490e-02 4.844117e-02 -2.501304e+00 99 113 121
5.244470e-01 2.743664e-02 -2.737906e+00 64 55 23
-4.437609e-02 4.764117e-02 -2.500419e+00 61 69 80
-4.359888e-02 4.476451e-02 -2.499906e+00 65 71 86
-1.996614e-02 4.208796e-02 -2.500175e+00 161 168 175
4.771876e-01 1.064856e-02 -2.756265e+00 156 144 124
7.505121e-01 1.926941e-02 -2.645581e+00 248 248 246
3.336427e-01 6.108734e-03 -2.710344e+00 18 21 8
-2.293095e-01 -3.107323e-04 -2.756685e+00 189 186 179
7.041196e-01 -1.134250e-03 -2.755032e+00 236 241 223
7.246513e-01 5.267008e-03 -2.681553e+00 252 251 248
1.258947e-01 9.776756e-03 -2.625174e+00 166 126 116
1.153273e-01 1.250576e-03 -2.614426e+00 91 81 79
2.931271e-01 -2.458586e-02 -2.754538e+00 26 29 36
-3.799317e-01 -4.516822e-02 -2.719796e+00 156 161 170
-3.494749e-01 -5.338476e-02 -2.716318e+00 164 169 172
-2.145565e-01 -6.167410e-02 -2.749824e+00 186 183 178
5.531483e-01 -7.178180e-02 -2.756634e+00 152 147 137
6.785942e-01 -6.760597e-02 -2.688447e+00 178 149 145
7.480524e-01 -7.360478e-02 -2.619472e+00 247 250 250
6.025137e-01 -9.789282e-02 -2.749980e+00 94 85 79
6.201635e-01 -1.123075e-01 -2.750230e+00 88 79 83
6.084300e-01 -1.152004e-01 -2.749863e+00 159 149 139
6.008209e-01 -1.150501e-01 -2.748965e+00 158 153 124
-6.267971e-01 -1.358967e-01 -2.779388e+00 34 33 30
-5.375697e-02 -1.055089e-01 -2.706554e+00 166 165 162
-3.629240e-01 -1.261599e-01 -2.737113e+00 47 51 60
6.475148e-01 -1.401650e-01 -2.751967e+00 180 174 148
-2.045321e-01 -1.345361e-01 -2.744895e+00 182 178 169
-4.109313e-01 -1.502007e-01 -2.751742e+00 161 136 116
6.419273e-01 -1.553791e-01 -2.740023e+00 225 222 213
7.033196e-01 -1.260721e-01 -2.606325e+00 235 246 248
-7.809622e-02 -1.435967e-01 -2.702148e+00 171 176 179
9.938096e-01 -1.951384e-01 -2.733190e+00 196 187 175
9.938096e-01 -1.951384e-01 -2.733190e+00 196 187 175
2.614220e-01 -1.385799e-01 -2.653646e+00 192 186 186
-3.952471e-01 -1.864189e-01 -2.723166e+00 27 30 36
-9.543903e-02 -1.724172e-01 -2.698141e+00 41 49 59
6.122028e-01 -2.084823e-01 -2.735675e+00 54 58 59
-5.160649e-01 -2.227903e-01 -2.753916e+00 79 79 84
-4.945564e-01 -2.253176e-01 -2.756401e+00 57 50 55
1.273449e-01 -1.545399e-01 -2.585393e+00 105 111 122
-2.935668e-01 -2.165700e-01 -2.732654e+00 185 181 180
-2.884355e-01 -2.202887e-01 -2.734633e+00 178 174 171
-3.405140e-01 -2.211273e-01 -2.718749e+00 152 149 156
2.352322e-01 -1.860828e-01 -2.644418e+00 155 151 140
-4.412466e-01 -2.477679e-01 -2.714856e+00 170 175 156
9.090401e-01 -2.557329e-01 -2.647136e+00 231 232 221
-2.944679e-01 -2.464081e-01 -2.725458e+00 205 203 211
-4.478852e-01 -2.613389e-01 -2.712215e+00 157 153 152
3.161538e-01 -2.479363e-01 -2.732248e+00 91 89 86
8.930270e-01 -2.853822e-01 -2.678951e+00 252 252 251
-2.662691e-01 -2.784488e-01 -2.695263e+00 183 177 180
8.811407e-01 -3.004402e-01 -2.634187e+00 232 233 226
8.811407e-01 -3.004402e-01 -2.634187e+00 232 233 226
9.066418e-01 -3.287834e-01 -2.649524e+00 81 88 94
-4.108483e-01 -3.187703e-01 -2.710578e+00 122 118 117
7.171972e-01 -3.189783e-01 -2.671716e+00 209 208 211
5.045103e-01 -3.309331e-01 -2.728720e+00 158 160 155
5.045103e-01 -3.309331e-01 -2.728720e+00 158 160 155
6.790058e-01 -3.420648e-01 -2.673092e+00 195 191 185
-2.076324e-01 -2.855531e-01 -2.612741e+00 80 33 53
8.987382e-01 -3.540184e-01 -2.619523e+00 145 158 193
6.654392e-01 -3.439262e-01 -2.665805e+00 200 193 185
5.372602e-02 -2.967696e-01 -2.650009e+00 151 147 144
6.749374e-01 -3.394602e-01 -2.626081e+00 201 196 196
-2.934633e-01 -3.450316e-01 -2.632490e+00 146 147 151
-1.563576e-01 -3.312352e-01 -2.621593e+00 77 39 74
-1.968678e-01 -3.416177e-01 -2.631674e+00 145 158 149
-1.606407e-01 -3.299235e-01 -2.611536e+00 66 54 73
-1.536714e-01 -3.327677e-01 -2.610704e+00 59 86 123
6.590064e-01 -4.518771e-01 -2.726456e+00 181 178 169
-2.927357e-01 -3.747955e-01 -2.615606e+00 33 36 41
-1.732637e-01 -3.697150e-01 -2.627423e+00 37 36 67
-3.986377e-01 -4.000551e-01 -2.600936e+00 37 44 71
4.971418e-01 -4.822891e-01 -2.735249e+00 166 164 145
2.097186e-01 -4.131425e-01 -2.657319e+00 172 181 182
-3.477538e-01 -4.204415e-01 -2.604258e+00 179 175 176
-3.506607e-01 -4.567938e-01 -2.606926e+00 148 146 147
-4.909794e-01 -4.939841e-01 -2.587321e+00 203 201 204
4.356499e-01 -5.073904e-01 -2.668652e+00 206 202 194
1.654368e-01 -4.886026e-01 -2.670806e+00 32 35 19
5.502001e-02 -5.030346e-01 -2.686814e+00 18 23 29
-7.849693e-02 -4.737088e-01 -2.622740e+00 49 44 48
1.762785e-01 -5.021821e-01 -2.670903e+00 43 38 22
2.248266e-01 -5.056875e-01 -2.672697e+00 104 114 86
2.248266e-01 -5.056875e-01 -2.672697e+00 104 114 86
-3.049862e-01 -4.901725e-01 -2.599480e+00 192 192 195
3.299346e-02 -5.301226e-01 -2.691749e+00 178 180 160
4.309543e-02 -5.228094e-01 -2.681790e+00 163 164 167
-3.347965e-01 -5.022162e-01 -2.593014e+00 145 150 160
7.279569e-01 -6.566030e-01 -2.765960e+00 148 149 151
4.506620e-01 -5.015107e-01 -2.606693e+00 93 83 85
4.506620e-01 -5.015107e-01 -2.606693e+00 93 83 85
5.314096e-01 -5.308800e-01 -2.615134e+00 23 35 34
2.922922e-01 -5.735792e-01 -2.695464e+00 115 123 95
3.637580e-01 -5.563104e-01 -2.661693e+00 165 151 137
4.253206e-01 -5.246713e-01 -2.605279e+00 40 45 58
-3.203844e-01 -5.221323e-01 -2.574696e+00 182 194 197
1.635684e-02 -5.574694e-01 -2.675115e+00 159 156 146
-3.175459e-01 -5.895658e-01 -2.659628e+00 82 80 81
1.594401e-01 -5.791321e-01 -2.693368e+00 176 150 145
1.137295e-01 -5.890156e-01 -2.689964e+00 158 158 161
-2.470687e-02 6.737117e-01 -2.820032e+00 210 186 180
3.264542e-01 6.223782e-01 -2.710536e+00 101 85 93
2.857822e-02 6.717000e-01 -2.843675e+00 51 50 55
2.805253e-01 6.741856e-01 -2.843211e+00 45 47 45
-2.817213e-01 6.306526e-01 -2.721746e+00 27 40 49
2.691743e-01 6.615374e-01 -2.845216e+00 53 53 61
3.062172e-01 6.604126e-01 -2.852174e+00 149 150 110
3.067626e-01 6.520184e-01 -2.840530e+00 47 47 47
2.824657e-01 6.418135e-01 -2.834395e+00 200 54 93
1.198222e-01 6.049964e-01 -2.824680e+00 189 139 148
1.137685e-01 6.088480e-01 -2.842953e+00 168 160 152
6.473129e-01 6.024906e-01 -2.702817e+00 248 245 242
-6.107778e-02 6.099831e-01 -2.857554e+00 58 64 67
-4.279542e-02 6.081992e-01 -2.856858e+00 86 85 94
-3.780881e-01 5.715390e-01 -2.711598e+00 64 95 98
5.566002e-01 5.677572e-01 -2.726148e+00 225 217 212
2.410503e-01 5.686026e-01 -2.839831e+00 165 164 166
2.833643e-01 5.424966e-01 -2.782136e+00 90 91 100
5.696727e-03 5.549624e-01 -2.835017e+00 171 168 156
1.909828e-01 5.534271e-01 -2.834895e+00 67 68 73
-8.091309e-02 5.566795e-01 -2.829603e+00 32 44 61
2.707901e-01 5.298098e-01 -2.780545e+00 123 123 131
-9.448515e-02 5.577031e-01 -2.844705e+00 47 55 60
2.285005e-01 5.445179e-01 -2.833278e+00 162 160 155
-1.021698e-01 5.459666e-01 -2.836379e+00 53 61 74
2.798236e-01 5.165193e-01 -2.776012e+00 205 200 197
-1.779362e-01 5.502140e-01 -2.841475e+00 33 38 42
-5.178771e-01 5.457535e-01 -2.701280e+00 136 135 142
-5.178771e-01 5.457535e-01 -2.701280e+00 136 135 142
-3.843580e-01 5.258485e-01 -2.815814e+00 14 17 26
-5.260819e-01 5.091145e-01 -2.692930e+00 37 28 40
-5.260819e-01 5.091145e-01 -2.692930e+00 37 28 40
-5.219715e-01 5.022314e-01 -2.690583e+00 85 79 73
-3.788663e-01 5.168303e-01 -2.818666e+00 23 26 35
-4.087280e-01 5.202347e-01 -2.820807e+00 28 31 36
-4.092024e-01 5.206586e-01 -2.822610e+00 28 31 36
-9.623330e-02 4.875789e-01 -2.829343e+00 151 148 157
1.875751e-01 4.695132e-01 -2.806266e+00 193 178 159
1.875751e-01 4.695132e-01 -2.806266e+00 193 178 159
-3.787412e-01 5.022766e-01 -2.818101e+00 14 18 27
7.207702e-01 4.866796e-01 -2.707225e+00 142 123 118
5.316389e-01 4.802045e-01 -2.797078e+00 64 68 79
-3.070577e-01 4.448899e-01 -2.748683e+00 21 24 17
1.693037e-01 4.259704e-01 -2.776719e+00 168 164 161
2.478297e-01 4.386282e-01 -2.823935e+00 59 52 42
-1.733370e-02 4.350212e-01 -2.820221e+00 143 133 123
2.624805e-01 4.251662e-01 -2.822344e+00 154 156 150
1.667713e-01 3.971782e-01 -2.766442e+00 181 180 175
4.785924e-01 4.213429e-01 -2.781707e+00 23 23 31
1.625041e-01 3.961105e-01 -2.767147e+00 151 148 143
-5.075304e-01 4.217680e-01 -2.716673e+00 51 53 74
4.522310e-01 3.984805e-01 -2.766661e+00 30 32 35
-6.000375e-01 4.347293e-01 -2.717595e+00 192 198 193
1.923364e-01 3.790113e-01 -2.765983e+00 120 118 126
-2.067358e-01 3.986859e-01 -2.797864e+00 163 174 178
4.999350e-01 4.070690e-01 -2.801909e+00 132 125 106
-5.167340e-01 4.099787e-01 -2.711076e+00 68 72 85
4.803910e-01 3.908476e-01 -2.795565e+00 175 171 174
1.367868e-04 3.671630e-01 -2.804525e+00 54 59 70
3.047426e-01 3.519094e-01 -2.764856e+00 203 213 215
-3.097270e-01 3.817336e-01 -2.829273e+00 41 42 47
4.812154e-01 3.708687e-01 -2.804204e+00 41 53 40
3.805824e-02 3.430776e-01 -2.803138e+00 144 130 114
-4.554557e-01 3.755778e-01 -2.822833e+00 15 20 23
9.547478e-02 3.240350e-01 -2.748007e+00 159 161 166
-4.545391e-01 3.514806e-01 -2.826912e+00 34 30 31
-2.680590e-02 3.097602e-01 -2.790772e+00 55 71 68
-2.847625e-01 3.226383e-01 -2.816588e+00 70 65 65
4.381351e-01 3.027885e-01 -2.790521e+00 190 181 167
-3.312328e-01 3.091833e-01 -2.816812e+00 59 49 58
-2.649963e-01 2.963716e-01 -2.815788e+00 172 156 156
2.691771e-01 2.793485e-01 -2.780412e+00 185 179 173
-4.905641e-01 3.128891e-01 -2.823461e+00 29 28 33
2.014968e-01 2.396337e-01 -2.771700e+00 40 46 40
-4.155965e-01 2.602649e-01 -2.811948e+00 187 171 158
-1.041943e-01 2.070566e-01 -2.563206e+00 147 150 150
-2.953920e-01 2.422113e-01 -2.804711e+00 52 51 52
-2.953920e-01 2.422113e-01 -2.804711e+00 52 51 52
-6.542259e-02 1.925528e-01 -2.578437e+00 151 151 153
-4.724223e-01 2.334174e-01 -2.804033e+00 75 78 71
-6.034603e-02 1.906188e-01 -2.578054e+00 158 156 159
-4.200649e-01 2.217655e-01 -2.805451e+00 36 31 37
-1.107245e+00 2.880524e-01 -2.878705e+00 67 66 62
-1.196070e+00 2.876189e-01 -2.885800e+00 139 123 98
-5.766988e-01 2.221375e-01 -2.808231e+00 24 25 29
-1.200423e-01 1.757658e-01 -2.570062e+00 126 133 143
-1.201379e-01 1.757705e-01 -2.570364e+00 126 133 143
-8.975258e-01 2.469628e-01 -2.791980e+00 57 61 57
4.697950e-01 1.948454e-01 -2.771929e+00 129 121 104
-4.059522e-01 2.027217e-01 -2.799097e+00 46 45 45
-6.927439e-02 1.717440e-01 -2.573926e+00 147 149 151
-9.372477e-01 2.297246e-01 -2.783272e+00 48 49 36
-7.417001e-02 1.602165e-01 -2.571313e+00 138 136 139
-1.116869e+00 2.438978e-01 -2.874196e+00 89 80 66
4.557434e-01 1.729928e-01 -2.766681e+00 79 80 81
3.983418e-01 1.626596e-01 -2.774932e+00 51 53 49
-5.786225e-01 1.798126e-01 -2.769975e+00 20 24 31
-6.136489e-01 1.810159e-01 -2.764149e+00 39 44 56
-4.375697e-01 1.673387e-01 -2.712381e+00 164 160 158
-8.672758e-01 1.921786e-01 -2.824429e+00 164 177 181
-3.447812e-02 1.377137e-01 -2.569253e+00 167 168 171
-8.660461e-01 1.827590e-01 -2.829983e+00 52 53 75
-3.999406e-01 1.436961e-01 -2.711800e+00 154 150 147
-5.631272e-02 1.194390e-01 -2.564063e+00 160 163 164
-6.040054e-01 1.327958e-01 -2.794617e+00 124 118 107
3.240099e-01 1.063978e-01 -2.762299e+00 138 139 100
-4.233486e-01 1.127314e-01 -2.702260e+00 155 151 149
5.455516e-02 1.035861e-01 -2.566897e+00 171 170 166
-7.052024e-01 1.153131e-01 -2.734275e+00 93 92 97
4.837735e-01 9.603972e-02 -2.772426e+00 96 97 94
-1.044414e+00 1.147952e-01 -2.825444e+00 36 33 37
-7.877896e-01 1.030782e-01 -2.731583e+00 145 135 150
-3.823741e-01 9.082687e-02 -2.653372e+00 178 178 177
-3.850580e-01 8.814022e-02 -2.652415e+00 187 185 180
7.492167e-01 5.789600e-02 -2.723265e+00 195 192 194
-7.171217e-01 6.166904e-02 -2.732227e+00 41 41 45
