ply
format ascii 1.0
element face 0
property list uchar int vertex_indices
element vertex 935
property float x
property float y
property float z
property uchar diffuse_red
property uchar diffuse_green
property uchar diffuse_blue
end_header
1.227493e+00 1.436467e-01 -2.815391e+00 230 227 235
9.648658e-01 1.691348e-01 -2.829627e+00 122 113 106
5.953597e-01 2.648202e-01 -2.710668e+00 86 86 86
1.257798e+00 1.825709e-01 -2.797930e+00 241 232 242
6.286784e-01 2.818354e-01 -2.718439e+00 208 202 193
6.286784e-01 2.818354e-01 -2.718439e+00 208 202 193
6.111813e-01 2.909893e-01 -2.714938e+00 190 186 186
5.285334e-01 3.156534e-01 -2.707094e+00 122 123 125
5.984010e-01 3.272063e-01 -2.711675e+00 182 181 187
5.182965e-01 3.454839e-01 -2.711074e+00 172 165 145
5.159347e-01 3.466466e-01 -2.714093e+00 158 154 143
5.193955e-01 3.496702e-01 -2.714605e+00 128 124 135
1.250344e+00 2.911006e-01 -2.800447e+00 48 43 61
1.282916e+00 2.914919e-01 -2.806571e+00 218 218 207
1.271032e+00 2.936881e-01 -2.807624e+00 161 162 166
1.268185e+00 2.957886e-01 -2.807390e+00 160 159 164
1.272402e+00 2.957843e-01 -2.808445e+00 172 172 174
1.272141e+00 3.023952e-01 -2.809654e+00 174 175 177
3.439852e-01 4.546042e-01 -2.703725e+00 211 194 201
3.824100e-01 4.908346e-01 -2.675675e+00 182 180 174
3.867890e-01 4.916355e-01 -2.676420e+00 136 136 127
1.216094e+00 3.583166e-01 -2.801783e+00 160 154 156
1.184378e+00 3.768280e-01 -2.795542e+00 165 161 159
1.377365e+00 3.665440e-01 -2.903541e+00 88 90 99
4.940458e-01 5.101326e-01 -2.726180e+00 164 163 161
3.377971e-01 5.684145e-01 -2.692201e+00 211 188 209
4.903109e-01 5.339036e-01 -2.731314e+00 175 170 168
1.388513e+00 4.092561e-01 -2.933367e+00 172 158 127
1.497663e+00 4.253687e-01 -2.995765e+00 54 49 64
1.488689e+00 4.269806e-01 -3.019552e+00 220 215 209
1.372309e+00 4.646519e-01 -3.003529e+00 179 165 157
1.491061e+00 4.560871e-01 -3.041459e+00 223 209 199
1.822945e-01 6.758344e-01 -2.805824e+00 56 70 95
2.159108e-01 6.959299e-01 -2.806115e+00 61 62 54
1.130748e-01 7.481404e-01 -2.807507e+00 40 46 48
1.339983e+00 5.252726e-01 -2.971771e+00 187 175 147
1.268521e+00 5.363457e-01 -2.995348e+00 124 111 110
2.658230e-01 7.226736e-01 -2.878428e+00 27 25 41
1.267988e+00 5.402660e-01 -2.997256e+00 174 165 157
2.359285e-01 7.334018e-01 -2.798161e+00 136 135 138
2.377596e-01 7.374294e-01 -2.789717e+00 139 146 135
2.421613e-01 7.387280e-01 -2.810566e+00 93 99 106
-8.065756e-02 8.381236e-01 -2.824819e+00 68 70 85
4.370542e-02 8.045139e-01 -2.813055e+00 104 102 93
5.266734e-01 6.645723e-01 -2.763758e+00 173 171 171
-8.056358e-02 8.464445e-01 -2.825878e+00 151 146 168
1.235225e+00 5.669459e-01 -2.992771e+00 76 66 65
3.858405e-01 7.216525e-01 -2.890686e+00 149 138 128
1.238537e+00 5.786963e-01 -2.997293e+00 67 60 62
1.235009e+00 5.802284e-01 -2.996950e+00 180 168 163
4.655769e-01 7.435268e-01 -2.767926e+00 125 124 126
1.505659e+00 6.119272e-01 -2.948597e+00 218 170 182
5.155850e-01 7.776394e-01 -2.796984e+00 77 36 38
5.232108e-01 7.867354e-01 -2.879783e+00 47 48 45
1.291541e+00 6.836075e-01 -3.038518e+00 182 161 156
4.277343e-01 8.251613e-01 -2.798781e+00 89 98 92
1.423920e+00 6.779578e-01 -2.983639e+00 165 162 169
1.263582e+00 7.009735e-01 -3.035129e+00 157 140 144
4.496594e-01 8.297962e-01 -2.804364e+00 198 191 179
1.260934e+00 7.081094e-01 -3.034128e+00 254 250 241
4.040087e-01 8.540400e-01 -2.792151e+00 237 222 213
5.033613e-01 8.286615e-01 -2.813653e+00 217 208 210
1.132842e+00 7.314754e-01 -3.015880e+00 72 68 51
1.337050e+00 7.192269e-01 -3.011553e+00 236 217 203
1.142830e+00 7.364959e-01 -3.019135e+00 147 136 118
4.626868e-01 8.495061e-01 -2.761392e+00 144 153 150
4.397945e-01 8.794143e-01 -2.778270e+00 55 64 72
5.734406e-01 8.423825e-01 -2.830944e+00 124 99 108
4.523510e-01 8.821662e-01 -2.781153e+00 215 209 227
4.443427e-01 8.885295e-01 -2.774447e+00 120 130 109
4.449794e-01 8.912545e-01 -2.776935e+00 120 129 100
4.904800e-01 8.823882e-01 -2.778398e+00 137 140 133
4.904800e-01 8.823882e-01 -2.778398e+00 137 140 133
5.746716e-01 8.563669e-01 -2.794401e+00 153 155 170
7.055187e-01 8.640839e-01 -2.887914e+00 168 134 132
1.220145e+00 7.987395e-01 -2.977668e+00 181 172 134
6.061162e-01 9.256622e-01 -2.978596e+00 170 181 161
1.243213e+00 8.017497e-01 -2.988017e+00 64 59 29
6.941886e-01 8.782727e-01 -2.891541e+00 138 121 132
7.195126e-01 8.779361e-01 -2.894809e+00 170 161 157
6.977951e-01 9.102027e-01 -2.901171e+00 212 170 170
7.107947e-01 9.116437e-01 -2.904436e+00 210 174 170
9.561197e-01 8.924192e-01 -2.999526e+00 53 52 61
7.049721e-01 9.280270e-01 -2.906978e+00 62 32 28
7.379750e-01 9.308615e-01 -2.918636e+00 142 133 143
1.065513e+00 8.918622e-01 -3.012011e+00 214 211 198
7.325077e-01 9.381073e-01 -2.918035e+00 213 178 182
7.238185e-01 -3.420838e-02 -2.670071e+00 193 185 200
1.229369e+00 -4.881194e-02 -2.703674e+00 241 234 248
5.374917e-01 5.556299e-02 -2.640382e+00 94 87 105
5.684250e-01 6.581158e-02 -2.648274e+00 210 192 199
7.370269e-01 2.978677e-02 -2.726084e+00 243 249 243
1.223024e+00 -1.035570e-02 -2.720571e+00 99 87 87
7.697356e-01 2.944614e-02 -2.745422e+00 166 162 166
5.416001e-01 9.736626e-02 -2.648976e+00 208 206 213
1.011305e+00 -3.243046e-03 -2.810195e+00 55 46 36
1.148764e+00 2.978256e-02 -2.736712e+00 233 229 233
8.163863e-01 4.726691e-02 -2.758151e+00 171 171 174
1.158735e+00 4.396871e-02 -2.740821e+00 244 243 245
7.016696e-01 1.633636e-01 -2.643228e+00 125 122 134
9.329229e-01 5.036594e-02 -2.818289e+00 99 87 92
9.527120e-01 7.288761e-02 -2.804455e+00 39 35 25
9.435441e-01 8.486928e-02 -2.805844e+00 75 66 41
9.348003e-01 8.322809e-02 -2.819003e+00 177 170 159
9.991736e-01 1.085482e-01 -2.818740e+00 171 145 118
1.006208e+00 1.086163e-01 -2.822384e+00 82 71 50
9.557614e-01 1.243955e-01 -2.810279e+00 65 49 41
9.579424e-01 1.322506e-01 -2.814457e+00 240 220 208
9.570477e-01 1.341003e-01 -2.815692e+00 141 124 108
9.593168e-01 1.357019e-01 -2.815449e+00 214 191 173
9.583928e-01 1.379779e-01 -2.816468e+00 130 113 96
5.757222e-01 2.245073e-01 -2.701777e+00 180 179 175
9.670674e-01 1.440397e-01 -2.815935e+00 55 32 27
1.224977e+00 1.355139e-01 -2.780101e+00 211 204 218
4.668408e-01 2.452174e-01 -2.682852e+00 179 179 179
4.583143e-01 2.542503e-01 -2.685543e+00 174 172 177
4.583143e-01 2.542503e-01 -2.685543e+00 174 172 177
5.206364e-01 2.606845e-01 -2.693804e+00 191 188 181
5.039008e-01 2.641291e-01 -2.689045e+00 152 152 150
4.729888e-01 2.660988e-01 -2.689675e+00 168 166 169
6.494940e-01 2.460641e-01 -2.715780e+00 137 139 134
5.443821e-01 2.614427e-01 -2.699575e+00 147 146 144
5.040847e-01 2.780763e-01 -2.694814e+00 162 160 161
5.185352e-01 2.779787e-01 -2.694334e+00 188 186 181
1.256070e+00 1.870234e-01 -2.801920e+00 231 229 240
6.059761e-01 3.258085e-01 -2.715555e+00 169 169 169
1.178012e+00 3.106080e-01 -2.778668e+00 155 152 153
1.178012e+00 3.106080e-01 -2.778668e+00 155 152 153
1.263436e+00 2.958370e-01 -2.805448e+00 131 132 136
4.371347e-01 4.045094e-01 -2.780058e+00 225 227 218
1.194139e+00 3.212033e-01 -2.787134e+00 165 163 166
4.713766e-01 4.033588e-01 -2.811986e+00 188 187 190
1.180061e+00 3.284544e-01 -2.785355e+00 154 150 151
3.300820e-01 4.600884e-01 -2.700581e+00 155 155 149
1.403030e+00 3.603113e-01 -2.910012e+00 183 174 168
4.361874e-01 5.188209e-01 -2.722511e+00 44 44 58
4.357196e-01 5.259855e-01 -2.720173e+00 104 111 120
1.288833e+00 4.144592e-01 -2.884163e+00 177 175 175
1.299220e+00 4.260771e-01 -2.889075e+00 178 174 171
4.011245e-01 5.792490e-01 -2.699795e+00 211 189 172
1.397401e+00 4.358893e-01 -3.007241e+00 176 173 168
4.014990e-01 6.003446e-01 -2.737527e+00 55 53 65
2.185766e-01 6.791863e-01 -2.866486e+00 102 93 98
2.245824e-01 7.077102e-01 -2.821208e+00 70 66 64
2.245824e-01 7.077102e-01 -2.821208e+00 70 66 64
3.389940e-01 6.827593e-01 -2.811880e+00 218 195 211
1.218415e-01 7.474710e-01 -2.817688e+00 177 175 175
2.719875e-02 7.797450e-01 -2.824927e+00 139 143 150
3.569060e-02 7.780667e-01 -2.818325e+00 139 143 150
2.471159e-01 7.188595e-01 -2.879351e+00 28 33 33
3.598666e-02 7.896841e-01 -2.856540e+00 58 56 57
-6.611055e-02 8.309704e-01 -2.811608e+00 86 90 107
2.441025e-01 7.344453e-01 -2.867355e+00 45 45 35
2.428791e-01 7.444258e-01 -2.802512e+00 147 146 141
5.519082e-01 7.120978e-01 -2.825358e+00 228 223 226
4.694798e-01 7.539834e-01 -2.768844e+00 37 39 62
1.264661e+00 6.338668e-01 -3.017801e+00 229 219 215
4.925571e-01 7.772628e-01 -2.781677e+00 205 197 197
5.373127e-01 8.103551e-01 -2.899816e+00 48 52 53
4.963358e-01 8.246103e-01 -2.811055e+00 179 175 166
4.614590e-01 8.377364e-01 -2.763762e+00 227 197 189
1.135329e+00 7.301890e-01 -3.016753e+00 149 143 119
1.146672e+00 7.430861e-01 -3.023207e+00 145 139 104
6.618986e-01 8.300124e-01 -2.955149e+00 81 82 86
4.380219e-01 8.824150e-01 -2.778885e+00 20 26 37
5.050792e-01 8.799741e-01 -2.790606e+00 217 215 205
4.741286e-01 9.014292e-01 -2.793242e+00 202 197 204
7.113282e-01 8.647263e-01 -2.889565e+00 135 123 127
6.145042e-01 9.350413e-01 -2.982374e+00 194 191 188
7.033682e-01 8.842707e-01 -2.895418e+00 205 181 175
6.803698e-01 8.924993e-01 -2.882327e+00 251 246 238
7.016941e-01 9.052038e-01 -2.900345e+00 143 127 130
6.809624e-01 9.111348e-01 -2.891807e+00 254 250 241
6.959662e-01 9.121947e-01 -2.901480e+00 94 65 85
6.836363e-01 9.143777e-01 -2.891501e+00 253 249 234
7.312604e-01 9.075350e-01 -2.907868e+00 145 132 136
9.564966e-01 8.897070e-01 -3.002356e+00 175 175 160
7.178414e-01 9.286837e-01 -2.911454e+00 89 67 85
7.172368e-01 9.384922e-01 -2.905899e+00 252 242 230
1.016160e+00 -6.827939e-02 -2.737505e+00 43 47 31
1.016339e+00 -3.515795e-02 -2.755539e+00 68 69 52
5.550668e-01 5.926790e-02 -2.645736e+00 228 217 213
7.305225e-01 2.531110e-02 -2.727642e+00 42 45 35
1.211110e+00 -9.231242e-03 -2.717685e+00 189 190 192
7.616956e-01 3.609327e-02 -2.743984e+00 138 127 130
1.112453e+00 -6.893129e-03 -2.768648e+00 183 184 189
9.969673e-01 -1.699916e-02 -2.803570e+00 31 33 32
9.969673e-01 -1.699916e-02 -2.803570e+00 31 33 32
7.584536e-01 4.152824e-02 -2.744070e+00 124 116 118
7.555051e-01 4.586866e-02 -2.744537e+00 126 119 123
1.007537e+00 -6.532375e-04 -2.810162e+00 57 50 37
1.224233e+00 3.095109e-02 -2.723834e+00 140 130 131
1.224233e+00 3.095109e-02 -2.723834e+00 140 130 131
1.132845e+00 2.198497e-02 -2.772847e+00 221 217 218
9.212339e-01 4.294850e-02 -2.814449e+00 45 45 45
9.137198e-01 5.094064e-02 -2.810844e+00 72 66 72
1.138632e+00 3.320771e-02 -2.801134e+00 242 241 246
1.138632e+00 3.320771e-02 -2.801134e+00 242 241 246
6.962877e-01 1.834372e-01 -2.648693e+00 33 36 45
9.491924e-01 8.064499e-02 -2.803259e+00 43 28 19
1.065890e+00 5.962516e-02 -2.830360e+00 121 120 118
4.944348e-01 1.888140e-01 -2.693513e+00 116 116 116
9.541867e-01 1.121556e-01 -2.807656e+00 55 42 32
5.852835e-01 2.008688e-01 -2.699016e+00 158 154 151
5.308500e-01 2.078408e-01 -2.691839e+00 149 148 145
5.531200e-01 2.066395e-01 -2.694584e+00 183 179 180
6.270476e-01 2.326220e-01 -2.705885e+00 251 250 247
5.852230e-01 2.399581e-01 -2.705809e+00 185 183 192
9.996508e-01 1.532618e-01 -2.829421e+00 182 167 131
5.031148e-01 2.668238e-01 -2.692679e+00 162 161 156
6.316364e-01 2.757288e-01 -2.672632e+00 172 169 164
1.188870e+00 3.013609e-01 -2.781454e+00 153 150 148
4.349064e-01 4.044344e-01 -2.778237e+00 31 33 41
4.001259e-01 4.834460e-01 -2.715643e+00 76 74 98
3.995121e-01 4.922974e-01 -2.711622e+00 119 133 152
3.701689e-01 5.106484e-01 -2.679266e+00 193 173 175
4.212100e-01 5.444692e-01 -2.689738e+00 119 125 125
1.501319e+00 4.531729e-01 -3.038880e+00 198 189 178
2.119703e-01 6.739047e-01 -2.851212e+00 126 118 105
1.394840e+00 4.788575e-01 -3.014053e+00 208 154 152
2.174291e-01 6.780789e-01 -2.873996e+00 90 80 78
1.373434e+00 4.940147e-01 -3.011135e+00 214 170 147
1.145912e-01 7.503616e-01 -2.809303e+00 118 122 128
3.401142e-02 7.743872e-01 -2.820476e+00 26 28 39
3.684924e-02 7.798312e-01 -2.822051e+00 23 26 36
2.655786e-01 7.195728e-01 -2.879861e+00 110 110 110
2.655786e-01 7.195728e-01 -2.879861e+00 110 110 110
2.655786e-01 7.195728e-01 -2.879861e+00 110 110 110
3.794161e-02 7.942370e-01 -2.858538e+00 59 54 58
5.358290e-01 6.544118e-01 -2.762506e+00 180 180 180
2.451625e-01 7.435510e-01 -2.840054e+00 125 120 113
2.522068e-01 7.532421e-01 -2.849625e+00 47 53 56
2.565938e-01 7.532337e-01 -2.873805e+00 42 41 36
2.622405e-01 7.533337e-01 -2.896004e+00 33 32 38
2.651430e-01 7.795748e-01 -2.834677e+00 144 143 138
1.273359e+00 6.024077e-01 -2.954442e+00 232 223 212
5.482797e-01 7.103468e-01 -2.778845e+00 49 36 45
1.264171e+00 6.374948e-01 -3.020123e+00 113 109 112
1.444662e+00 6.703696e-01 -2.989947e+00 197 191 193
4.281467e-01 8.185403e-01 -2.795315e+00 97 100 113
1.200561e+00 6.901407e-01 -3.022233e+00 155 146 113
6.734127e-01 8.251073e-01 -2.952770e+00 80 68 84
4.477008e-01 8.944691e-01 -2.781402e+00 120 127 116
8.729780e-01 8.418078e-01 -2.989535e+00 34 34 43
8.780064e-01 8.529682e-01 -2.985324e+00 16 19 26
5.963760e-01 9.364809e-01 -2.982019e+00 76 72 98
5.935700e-01 9.426887e-01 -2.983282e+00 47 41 54
6.885463e-01 8.952213e-01 -2.891843e+00 69 47 55
6.885463e-01 8.952213e-01 -2.891843e+00 69 47 55
7.062031e-01 9.217031e-01 -2.905636e+00 80 54 77
8.030063e-01 8.884021e-01 -2.867365e+00 67 36 82
9.170844e-01 -1.152438e-01 -2.744361e+00 109 111 87
9.193456e-01 -1.082625e-01 -2.743478e+00 45 46 34
9.343325e-01 -4.354267e-02 -2.737969e+00 34 34 32
1.215687e+00 -5.702744e-02 -2.712225e+00 154 154 162
5.458351e-01 7.684463e-02 -2.641773e+00 252 253 252
7.315064e-01 3.239062e-02 -2.754016e+00 185 139 131
1.282933e+00 2.096874e-02 -2.705276e+00 209 202 196
9.809578e-01 -5.472287e-04 -2.803869e+00 161 153 132
1.000609e+00 -9.632303e-04 -2.808782e+00 44 39 30
9.826245e-01 3.598158e-03 -2.806363e+00 47 39 40
7.818196e-01 6.668056e-02 -2.753651e+00 166 162 161
1.082581e+00 1.131156e-02 -2.807950e+00 167 175 90
9.983213e-01 2.981431e-02 -2.811661e+00 162 157 127
1.052104e+00 4.891397e-02 -2.818382e+00 40 43 68
1.172625e+00 8.735932e-02 -2.783038e+00 231 230 235
4.828375e-01 2.182996e-01 -2.686624e+00 81 80 84
4.832198e-01 2.222802e-01 -2.684787e+00 164 162 163
5.845548e-01 2.330888e-01 -2.703432e+00 168 168 178
5.199520e-01 2.408449e-01 -2.695285e+00 151 149 150
5.150993e-01 2.486625e-01 -2.691622e+00 130 125 129
4.584128e-01 2.631874e-01 -2.689570e+00 141 141 140
5.807566e-01 2.927061e-01 -2.708606e+00 145 145 143
5.801720e-01 3.335691e-01 -2.715911e+00 137 137 137
1.395366e+00 2.201809e-01 -2.824766e+00 128 137 99
1.398505e+00 2.248498e-01 -2.829532e+00 69 68 56
1.398505e+00 2.248498e-01 -2.829532e+00 69 68 56
1.200690e+00 2.989066e-01 -2.785130e+00 155 150 154
1.200731e+00 2.988595e-01 -2.785288e+00 155 150 154
1.259967e+00 2.892320e-01 -2.803198e+00 150 149 154
1.280614e+00 2.911500e-01 -2.808304e+00 63 63 62
1.253406e+00 3.194964e-01 -2.806548e+00 145 141 142
1.244226e+00 3.328614e-01 -2.806943e+00 171 170 168
1.208374e+00 3.448072e-01 -2.796365e+00 190 186 187
4.260509e-01 5.224369e-01 -2.683259e+00 120 134 141
1.316397e+00 3.832467e-01 -2.882980e+00 188 182 184
4.365806e-01 5.304828e-01 -2.720681e+00 105 106 116
1.200603e+00 4.092001e-01 -2.839658e+00 26 30 30
4.395829e-01 5.445386e-01 -2.733613e+00 35 28 34
4.293768e-01 5.622292e-01 -2.704177e+00 43 54 71
1.488711e+00 4.383487e-01 -3.030966e+00 216 205 188
1.485266e+00 4.467968e-01 -3.036888e+00 252 243 234
2.155189e-01 6.803187e-01 -2.854972e+00 112 110 96
3.253774e-02 7.628244e-01 -2.826785e+00 104 97 91
2.659279e-01 7.195764e-01 -2.879437e+00 111 111 112
2.660152e-01 7.827003e-01 -2.803424e+00 112 113 117
1.358103e+00 6.008890e-01 -2.935826e+00 167 163 160
4.673531e-01 7.397473e-01 -2.773284e+00 200 139 155
1.241867e+00 6.299425e-01 -3.013462e+00 246 242 227
4.485493e-01 7.719000e-01 -2.786610e+00 49 50 63
1.283335e+00 6.374499e-01 -2.966984e+00 106 56 70
1.361899e+00 6.986807e-01 -2.965040e+00 169 163 164
1.215347e+00 7.789286e-01 -2.980345e+00 40 40 35
1.215347e+00 7.789286e-01 -2.980345e+00 40 40 35
5.677769e-01 9.316985e-01 -2.972323e+00 78 81 55
5.947804e-01 9.287315e-01 -2.984871e+00 62 70 73
6.867282e-01 8.876157e-01 -2.890544e+00 72 48 67
6.872232e-01 9.122293e-01 -2.890780e+00 90 78 74
1.226691e+00 -4.600903e-02 -2.714342e+00 86 83 108
5.693856e-01 6.516967e-02 -2.649219e+00 207 195 196
9.852429e-01 -1.658568e-02 -2.768204e+00 30 31 27
7.664131e-01 3.291728e-02 -2.744541e+00 28 26 37
1.066434e+00 -2.016596e-02 -2.794443e+00 133 127 113
5.590229e-01 1.008639e-01 -2.651137e+00 198 185 177
9.956849e-01 -9.453400e-03 -2.808142e+00 165 151 145
1.005763e+00 -3.120939e-04 -2.810413e+00 47 43 31
1.136153e+00 2.645327e-02 -2.778569e+00 195 191 188
8.118540e-01 6.859083e-02 -2.797992e+00 23 27 35
1.000458e+00 6.761474e-02 -2.816726e+00 167 151 117
5.490111e-01 2.045745e-01 -2.694167e+00 145 142 143
9.462374e-01 1.344928e-01 -2.820377e+00 175 168 159
4.864577e-01 2.313852e-01 -2.686662e+00 149 154 157
6.270389e-01 2.273311e-01 -2.709827e+00 38 34 41
4.925299e-01 2.487210e-01 -2.686463e+00 138 136 139
5.775600e-01 2.452546e-01 -2.705327e+00 48 63 73
4.579850e-01 2.602295e-01 -2.686932e+00 182 183 181
9.598669e-01 1.645792e-01 -2.829439e+00 138 125 116
5.233831e-01 2.765937e-01 -2.694966e+00 134 133 131
5.767457e-01 2.914301e-01 -2.707155e+00 128 126 127
1.205614e+00 3.029701e-01 -2.786739e+00 158 154 153
1.218457e+00 3.140558e-01 -2.794045e+00 149 147 148
1.243657e+00 3.124559e-01 -2.801662e+00 137 135 138
1.209603e+00 3.195007e-01 -2.790884e+00 149 144 148
1.224320e+00 3.389840e-01 -2.801481e+00 173 172 172
1.224320e+00 3.389840e-01 -2.801481e+00 173 172 172
1.233704e+00 3.487728e-01 -2.805147e+00 169 167 170
1.218185e+00 4.040389e-01 -2.846953e+00 136 150 93
4.421454e-01 5.440269e-01 -2.737035e+00 52 49 60
4.926526e-01 5.379573e-01 -2.736665e+00 47 46 44
1.644634e+00 3.908597e-01 -3.045999e+00 199 198 191
-5.648152e-02 7.848316e-01 -2.806644e+00 45 45 65
4.103446e-02 8.032397e-01 -2.860059e+00 112 102 98
2.500147e-01 7.478204e-01 -2.846630e+00 33 27 42
2.536093e-01 7.473937e-01 -2.852291e+00 139 135 129
1.915840e-01 7.753618e-01 -2.802570e+00 141 141 143
1.277887e+00 6.160102e-01 -2.959051e+00 137 125 109
1.304510e+00 6.454117e-01 -2.970349e+00 202 118 113
5.097412e-01 7.950443e-01 -2.788160e+00 212 212 200
1.221676e+00 6.959421e-01 -3.028808e+00 145 135 110
5.357774e-01 8.033059e-01 -2.806636e+00 59 36 57
1.419680e+00 6.977682e-01 -2.988568e+00 166 161 165
1.342773e+00 7.197226e-01 -3.003062e+00 198 116 121
4.728774e-01 8.475139e-01 -2.772772e+00 129 96 105
4.828203e-01 8.608028e-01 -2.822213e+00 46 50 53
4.466185e-01 8.786812e-01 -2.778774e+00 65 71 93
5.076489e-01 8.894694e-01 -2.789688e+00 133 82 91
5.787465e-01 9.457551e-01 -2.976692e+00 136 135 83
9.033874e-01 8.906604e-01 -2.994772e+00 33 36 42
7.465349e-01 9.128049e-01 -2.911829e+00 203 168 163
9.039819e-01 8.962338e-01 -2.977635e+00 21 19 24
5.662806e-01 3.501894e-02 -2.643297e+00 203 199 198
7.498875e-01 1.949129e-02 -2.675671e+00 55 48 50
1.030792e+00 -4.765402e-02 -2.747551e+00 32 32 25
9.824436e-01 -1.765547e-02 -2.762230e+00 77 96 68
9.879438e-01 -5.637711e-03 -2.805724e+00 144 127 119
6.498962e-01 1.245934e-01 -2.635684e+00 79 79 82
6.498962e-01 1.245934e-01 -2.635684e+00 79 79 82
9.823863e-01 9.268120e-03 -2.807923e+00 145 130 107
1.006928e+00 1.204417e-01 -2.825685e+00 186 169 143
9.630509e-01 1.339090e-01 -2.814458e+00 80 69 64
4.698142e-01 2.293169e-01 -2.683635e+00 38 46 50
4.698142e-01 2.293169e-01 -2.683635e+00 38 46 50
4.870794e-01 2.451189e-01 -2.685980e+00 164 164 163
5.934045e-01 2.353800e-01 -2.699800e+00 142 159 167
4.623684e-01 2.551970e-01 -2.686511e+00 179 178 179
5.733502e-01 2.558467e-01 -2.703126e+00 28 35 44
5.733502e-01 2.558467e-01 -2.703126e+00 28 35 44
5.584618e-01 2.824857e-01 -2.702734e+00 123 123 125
1.375640e+00 2.071319e-01 -2.820676e+00 154 164 141
5.751303e-01 3.518734e-01 -2.720972e+00 124 124 124
5.751303e-01 3.518734e-01 -2.720972e+00 124 124 124
5.178416e-01 3.736007e-01 -2.719684e+00 129 129 131
1.203587e+00 3.200086e-01 -2.789473e+00 151 149 152
1.198790e+00 3.413871e-01 -2.790782e+00 162 160 161
1.225830e+00 3.519553e-01 -2.804974e+00 143 141 144
4.007718e-01 5.569603e-01 -2.671985e+00 177 180 173
1.207181e+00 4.199985e-01 -2.835730e+00 121 130 95
1.509910e+00 4.738287e-01 -3.032286e+00 223 214 204
2.720476e-02 7.612261e-01 -2.837901e+00 50 45 53
2.464218e-01 7.211873e-01 -2.883904e+00 40 42 41
1.363547e+00 6.208540e-01 -2.951668e+00 56 55 74
1.436632e+00 6.428956e-01 -2.972298e+00 236 192 165
1.344909e+00 6.753664e-01 -2.953620e+00 198 194 186
5.626754e-01 8.666296e-01 -2.964659e+00 25 29 40
1.092529e+00 7.518046e-01 -2.972158e+00 122 123 85
7.138797e-01 9.102527e-01 -2.911158e+00 168 145 145
7.343922e-01 9.193631e-01 -2.913704e+00 200 166 157
7.449642e-01 1.007109e-02 -2.670066e+00 60 56 58
7.812307e-01 1.496241e-02 -2.747906e+00 30 34 41
1.220068e+00 2.228577e-02 -2.723501e+00 161 156 149
9.468888e-01 4.806297e-02 -2.804937e+00 174 162 120
9.257521e-01 4.520146e-02 -2.817511e+00 165 155 145
9.864623e-01 4.820538e-02 -2.809200e+00 45 41 35
9.577558e-01 7.604755e-02 -2.806765e+00 141 139 100
4.920672e-01 2.170477e-01 -2.691323e+00 140 141 143
1.002163e+00 1.242983e-01 -2.827849e+00 192 174 138
5.290808e-01 2.248224e-01 -2.693851e+00 44 47 56
5.003951e-01 2.573429e-01 -2.691567e+00 154 154 152
5.789086e-01 3.395923e-01 -2.718380e+00 130 130 131
3.528606e-01 4.588975e-01 -2.705960e+00 109 97 111
1.336945e+00 3.567700e-01 -2.879326e+00 52 58 73
4.239354e-01 5.472036e-01 -2.693125e+00 26 30 42
1.301714e+00 4.158470e-01 -2.888368e+00 184 178 178
2.208936e-01 6.925634e-01 -2.866772e+00 33 29 35
2.448505e-01 7.458772e-01 -2.807032e+00 149 141 138
1.939438e-01 8.045245e-01 -2.807066e+00 99 98 114
2.226831e-01 8.285807e-01 -2.822509e+00 30 36 51
1.194034e+00 6.340134e-01 -3.003964e+00 162 165 122
1.205048e+00 6.792884e-01 -3.022360e+00 154 145 115
1.389264e+00 6.675496e-01 -2.970112e+00 202 197 195
1.325291e+00 7.068908e-01 -3.040661e+00 223 148 135
6.861037e-01 9.063307e-01 -2.891778e+00 48 38 45
5.507121e-01 6.008505e-02 -2.644170e+00 216 210 211
9.732651e-01 -2.868059e-02 -2.757592e+00 33 38 32
5.605053e-01 6.595109e-02 -2.647007e+00 171 115 115
5.630522e-01 8.868683e-02 -2.649453e+00 72 67 70
9.519993e-01 7.459378e-02 -2.796628e+00 49 40 32
1.059444e+00 5.093512e-02 -2.824415e+00 42 41 36
1.031843e+00 6.309264e-02 -2.822194e+00 147 142 105
7.836808e-01 1.193718e-01 -2.807020e+00 31 35 44
8.016943e-01 1.409022e-01 -2.803726e+00 148 146 134
4.897587e-01 2.305066e-01 -2.684699e+00 161 163 161
4.897587e-01 2.305066e-01 -2.684699e+00 161 163 161
5.263235e-01 3.533113e-01 -2.715304e+00 132 132 134
5.303009e-01 3.599637e-01 -2.718206e+00 120 121 123
1.237162e+00 3.240088e-01 -2.799706e+00 140 135 141
1.499045e+00 4.472204e-01 -3.023836e+00 226 221 218
3.490061e-02 7.989612e-01 -2.808175e+00 116 114 127
2.604561e-01 7.693679e-01 -2.852314e+00 142 138 126
4.833243e-01 7.565823e-01 -2.829635e+00 69 67 69
5.237463e-01 7.877103e-01 -2.876364e+00 71 72 72
1.416058e+00 6.664747e-01 -2.974648e+00 201 197 195
5.140274e-01 7.898667e-01 -2.794609e+00 44 32 44
5.363702e-01 8.041337e-01 -2.887806e+00 68 72 76
5.405152e-01 8.169535e-01 -2.856925e+00 98 103 99
1.289639e+00 7.319246e-01 -3.043200e+00 185 178 169
1.289639e+00 7.319246e-01 -3.043200e+00 185 178 169
4.894766e-01 8.772724e-01 -2.782630e+00 52 49 58
4.964489e-01 8.863548e-01 -2.783154e+00 190 191 184
1.111210e+00 -1.753362e-02 -2.806831e+00 90 86 85
8.300242e-01 7.447626e-02 -2.790482e+00 36 45 54
1.021773e+00 6.093459e-02 -2.819498e+00 170 155 122
9.188515e-01 9.548182e-02 -2.817532e+00 132 122 113
5.001477e-01 2.275423e-01 -2.690601e+00 103 102 108
1.226892e+00 1.347996e-01 -2.771016e+00 162 171 187
5.254345e-01 2.747701e-01 -2.695086e+00 139 139 141
5.646549e-01 3.034483e-01 -2.702135e+00 192 193 195
1.368733e+00 2.087783e-01 -2.823962e+00 130 139 115
1.198821e+00 3.482295e-01 -2.793635e+00 175 174 172
4.383202e-01 4.807016e-01 -2.714200e+00 39 38 46
4.610454e-01 5.549455e-01 -2.736793e+00 52 33 50
5.190557e-01 6.757633e-01 -2.768742e+00 191 189 192
1.268574e+00 6.723449e-01 -3.030783e+00 179 163 149
8.861448e-01 4.534759e-03 -2.798703e+00 36 41 52
9.730107e-01 1.212630e-01 -2.816157e+00 152 145 103
9.784450e-01 1.724691e-01 -2.827695e+00 184 173 163
1.255927e+00 3.103705e-01 -2.806571e+00 150 144 146
4.349788e-01 5.719516e-01 -2.724990e+00 29 25 26
2.324935e-01 7.261895e-01 -2.830927e+00 119 118 122
8.177128e-01 1.556148e-02 -2.695544e+00 41 45 31
9.388345e-01 -1.761051e-02 -2.788748e+00 59 67 47
9.289559e-01 -6.186547e-04 -2.787558e+00 161 149 130
9.289559e-01 -6.186547e-04 -2.787558e+00 161 149 130
1.407144e+00 3.575436e-01 -2.907521e+00 209 199 200
4.368142e-01 5.958290e-01 -2.754210e+00 72 85 104
1.382254e+00 6.915123e-01 -2.963667e+00 160 156 160
8.989158e-01 -5.935471e-02 -2.730851e+00 76 64 54
9.907331e-01 6.356226e-03 -2.806429e+00 149 136 102
9.907331e-01 6.356226e-03 -2.806429e+00 149 136 102
7.884093e-01 8.203515e-01 -2.853356e+00 213 150 158
9.269226e-01 2.517053e-02 -2.810786e+00 32 35 40
1.034956e+00 1.945765e-01 -2.776267e+00 252 247 244
7.763247e-01 6.068295e-02 -2.758357e+00 151 150 146
1.169755e-01 3.088786e-01 -2.735991e+00 195 188 194
1.196266e-01 3.550633e-01 -2.746433e+00 236 233 225
7.862759e-01 9.576040e-01 -2.925225e+00 186 151 142
5.991927e-01 1.123809e+00 -3.009883e+00 94 104 114
5.899300e-01 9.471068e-01 -2.976549e+00 45 47 31
7.790637e-01 9.494156e-01 -2.921105e+00 153 140 140
6.754211e-02 1.223636e+00 -2.944767e+00 214 208 202
7.589861e-01 9.780667e-01 -2.926180e+00 215 184 176
7.794336e-01 9.778115e-01 -2.931047e+00 200 159 151
5.908707e-01 1.087784e+00 -2.989509e+00 90 106 132
1.095706e+00 1.035231e+00 -3.040354e+00 226 219 218
5.365291e-01 9.764461e-01 -2.978871e+00 231 243 221
6.430132e-01 9.694242e-01 -2.998879e+00 227 224 217
9.977808e-01 9.857798e-01 -3.023643e+00 138 124 111
9.163437e-01 9.985653e-01 -3.009115e+00 172 157 149
1.114272e+00 6.703067e-01 -2.983874e+00 71 70 57
5.554163e-01 9.618492e-01 -2.979756e+00 143 141 86
7.394204e-01 9.629278e-01 -2.915502e+00 161 142 134
7.557383e-01 9.852901e-01 -2.928430e+00 219 181 179
9.268781e-01 9.922724e-01 -3.009126e+00 175 162 154
1.012748e+00 9.989215e-01 -3.036191e+00 192 178 169
9.407113e-01 1.013838e+00 -3.018764e+00 60 49 84
1.000537e+00 1.011093e+00 -3.037169e+00 185 171 160
1.002979e+00 1.020048e+00 -3.040283e+00 186 172 161
9.225848e-01 8.831634e-01 -2.989393e+00 47 54 62
1.002535e+00 9.876593e-01 -3.025269e+00 193 179 166
1.002535e+00 9.876593e-01 -3.025269e+00 193 179 166
9.873640e-01 1.019212e+00 -3.033107e+00 179 169 157
1.087641e-01 4.768338e-01 -2.776448e+00 221 218 213
1.855026e-01 1.180975e+00 -2.973223e+00 96 88 101
4.572232e-01 1.109327e+00 -3.020671e+00 37 31 37
9.031332e-01 1.044366e+00 -2.970556e+00 22 29 32
1.095643e+00 7.029760e-01 -2.982960e+00 191 186 183
1.381600e+00 7.212402e-01 -2.968678e+00 173 168 170
1.122289e+00 9.558685e-01 -3.041769e+00 181 170 143
6.017364e-01 1.377286e+00 -3.102440e+00 149 147 146
3.270102e-01 1.440391e+00 -3.134047e+00 219 206 197
6.016960e-01 1.334149e+00 -3.099662e+00 173 157 168
5.977152e-01 1.334504e+00 -3.098559e+00 63 53 61
5.962996e-01 1.332536e+00 -3.099850e+00 182 176 173
3.117868e-01 1.382415e+00 -3.107721e+00 64 65 52
3.874578e-01 1.362042e+00 -3.108032e+00 192 182 180
1.269893e-01 1.423160e+00 -3.111138e+00 214 195 195
1.282599e-01 1.419999e+00 -3.110748e+00 81 61 63
5.318744e-01 1.295743e+00 -3.075045e+00 185 171 160
3.640724e-01 1.318061e+00 -3.091363e+00 188 180 179
3.600921e-01 1.315339e+00 -3.089276e+00 112 102 101
6.093529e-01 1.183720e+00 -2.966578e+00 170 169 166
5.502777e-01 1.184070e+00 -3.033050e+00 206 187 170
6.362561e-01 1.158767e+00 -3.012568e+00 205 188 167
-9.036119e-02 1.276856e+00 -2.914192e+00 109 107 123
3.571901e-01 1.150295e+00 -3.031088e+00 61 48 48
3.307566e-01 1.142240e+00 -3.028608e+00 59 42 36
1.179588e-01 1.160049e+00 -2.945607e+00 47 49 55
7.419142e-01 1.077300e+00 -2.996031e+00 95 96 91
6.247880e-01 1.082670e+00 -2.996687e+00 162 171 180
6.247880e-01 1.082670e+00 -2.996687e+00 162 171 180
4.162993e-01 1.102707e+00 -3.012344e+00 155 134 113
7.587262e-01 1.067435e+00 -2.996133e+00 97 93 92
4.400989e-01 1.075723e+00 -3.001719e+00 218 213 202
3.746608e-01 1.075492e+00 -3.000811e+00 119 103 111
-7.216367e-02 1.146159e+00 -2.998143e+00 114 112 115
7.097458e-02 1.119473e+00 -2.947546e+00 50 35 34
-7.574341e-02 1.119881e+00 -2.984707e+00 61 62 71
3.531702e-01 1.028239e+00 -2.986308e+00 152 148 149
3.694173e-01 1.025278e+00 -2.987432e+00 94 94 92
3.913886e-01 1.012612e+00 -2.982496e+00 81 81 81
7.773209e-01 9.772207e-01 -2.928510e+00 216 180 171
7.483243e-01 9.739954e-01 -2.918742e+00 219 191 177
8.144346e-01 9.583909e-01 -2.930332e+00 205 184 169
2.324689e-01 9.911708e-01 -2.965513e+00 82 79 65
7.547530e-01 9.579157e-01 -2.914992e+00 220 186 183
8.491326e-01 9.175579e-01 -2.873636e+00 218 147 156
7.647628e-01 9.080360e-01 -2.899910e+00 219 183 171
2.989645e-01 9.164302e-01 -2.939241e+00 114 109 116
2.910162e-01 8.962366e-01 -2.928750e+00 139 134 138
3.968717e-02 8.921470e-01 -2.947158e+00 62 62 50
-4.083700e-02 6.962481e-01 -2.808220e+00 46 42 44
1.053026e-01 5.844192e-01 -2.851511e+00 235 234 236
1.466463e-01 5.308034e-01 -2.818832e+00 95 92 87
3.636272e-01 6.087896e-01 -2.699937e+00 218 217 213
9.741822e-02 4.735508e-01 -2.789353e+00 213 210 209
1.312038e-02 4.618083e-01 -2.778839e+00 173 168 169
3.435583e-01 5.664094e-01 -2.688344e+00 242 224 236
8.659728e-02 3.785709e-01 -2.766305e+00 168 166 162
6.360710e-02 3.441471e-01 -2.757122e+00 193 188 185
2.204926e-01 3.277097e-01 -2.766448e+00 70 103 152
5.795195e-01 1.345462e+00 -3.102573e+00 153 152 147
5.964606e-01 1.337384e+00 -3.100283e+00 195 184 181
3.122382e-01 1.392281e+00 -3.112489e+00 196 182 173
3.125912e-01 1.391954e+00 -3.111150e+00 196 182 173
3.232703e-01 1.374949e+00 -3.106058e+00 51 52 32
3.188784e-01 1.347386e+00 -3.095991e+00 158 156 134
3.739698e-01 1.313527e+00 -3.091268e+00 150 143 137
2.208329e-01 1.335266e+00 -3.043664e+00 28 29 23
5.206986e-01 1.240878e+00 -3.050105e+00 47 39 36
3.658905e-01 1.265072e+00 -3.074247e+00 189 181 173
4.238337e-01 1.252721e+00 -3.068438e+00 56 49 38
4.314357e-01 1.244717e+00 -3.066192e+00 157 140 133
3.450189e-01 1.246706e+00 -3.067986e+00 187 183 171
5.453695e-01 1.200100e+00 -3.036099e+00 186 172 159
1.559485e-01 1.224518e+00 -2.974065e+00 187 181 169
3.397097e-01 1.186201e+00 -3.049603e+00 254 250 252
1.238566e-01 1.216772e+00 -2.964559e+00 63 62 72
6.139640e-01 1.105089e+00 -3.004634e+00 108 121 135
-1.014126e-01 1.222090e+00 -2.917971e+00 69 77 95
2.628021e-01 1.090190e+00 -3.006892e+00 177 171 161
4.544391e-01 1.063409e+00 -3.000244e+00 229 211 198
-1.013810e-01 1.147545e+00 -2.981895e+00 42 43 35
-2.641882e-01 1.175849e+00 -2.954990e+00 75 77 85
3.307280e-01 1.055380e+00 -2.995073e+00 67 67 78
5.112167e-03 1.095320e+00 -3.010807e+00 41 43 49
3.902398e-01 1.007051e+00 -2.980938e+00 56 61 65
7.564938e-01 9.507447e-01 -2.912564e+00 175 132 124
2.258237e-01 9.787547e-01 -2.960254e+00 99 97 78
2.374588e-01 9.739605e-01 -2.957404e+00 23 26 14
7.858272e-01 9.254807e-01 -2.911193e+00 209 184 176
7.933114e-01 9.228315e-01 -2.911888e+00 210 188 177
7.658362e-01 9.143090e-01 -2.901977e+00 172 132 122
3.778411e-02 9.174379e-01 -2.953598e+00 45 56 35
1.923755e-01 8.589212e-01 -2.861240e+00 229 229 233
-3.551208e-02 8.300625e-01 -2.818393e+00 200 196 197
2.669161e-01 6.715420e-01 -2.879010e+00 69 71 82
8.917902e-02 4.836444e-01 -2.790438e+00 111 102 122
1.013525e-01 4.805474e-01 -2.790656e+00 209 210 205
3.245986e-01 1.433436e+00 -3.129116e+00 34 41 36
3.785866e-01 1.413896e+00 -3.123543e+00 175 172 142
6.029736e-01 1.339327e+00 -3.099672e+00 160 147 132
3.262441e-01 1.397041e+00 -3.114247e+00 118 106 93
-1.265220e-01 1.452718e+00 -2.980621e+00 33 39 58
2.243792e-01 1.332556e+00 -3.044820e+00 30 31 25
5.390754e-01 1.244464e+00 -3.057841e+00 169 155 140
-2.929006e-01 1.343894e+00 -2.998812e+00 197 177 197
1.887748e-01 1.196374e+00 -2.962093e+00 89 80 83
-2.291365e-01 1.263579e+00 -2.937201e+00 204 207 195
3.658868e-01 1.018058e+00 -2.982447e+00 110 112 116
7.931188e-01 9.749110e-01 -2.931374e+00 185 159 142
7.737933e-01 9.719261e-01 -2.925749e+00 141 134 128
8.086227e-01 9.544515e-01 -2.928332e+00 222 189 170
7.614348e-01 9.526217e-01 -2.914633e+00 203 167 161
7.629771e-01 9.452456e-01 -2.912491e+00 184 141 134
7.871959e-01 9.292211e-01 -2.912400e+00 211 181 170
4.761838e-02 9.150891e-01 -2.957399e+00 101 106 82
-6.308162e-02 8.318678e-01 -2.814790e+00 167 163 161
-2.400060e-02 6.892049e-01 -2.802310e+00 73 58 56
1.087564e-01 5.050996e-01 -2.797743e+00 158 156 159
6.068525e-02 4.175990e-01 -2.773290e+00 118 113 120
2.899220e-01 2.382337e-01 -2.788086e+00 193 188 186
2.433052e-01 1.456674e+00 -3.130553e+00 187 173 161
3.444498e-01 1.423550e+00 -3.124206e+00 111 98 79
3.303573e-01 1.413787e+00 -3.122318e+00 109 100 87
2.378479e-01 1.434969e+00 -3.122247e+00 149 131 128
3.716626e-01 1.387205e+00 -3.112743e+00 76 72 54
6.043484e-01 1.335692e+00 -3.101087e+00 83 66 75
3.419932e-01 1.385404e+00 -3.111779e+00 161 155 131
5.703981e-01 1.318243e+00 -3.097010e+00 195 180 180
-1.894554e-01 1.420739e+00 -2.991797e+00 221 195 204
2.230110e-01 1.282518e+00 -3.031538e+00 24 26 22
3.820373e-01 1.216691e+00 -3.056921e+00 67 55 39
6.431384e-01 1.165702e+00 -3.017559e+00 57 44 58
-2.036312e-01 1.251892e+00 -2.932790e+00 90 89 92
-7.352413e-01 1.359677e+00 -3.172898e+00 188 204 180
4.341283e-01 1.110937e+00 -3.016933e+00 140 124 96
6.067706e-01 1.091274e+00 -2.996297e+00 56 68 85
9.661531e-01 1.066105e+00 -3.054683e+00 39 44 48
-7.467774e-02 1.189974e+00 -2.907517e+00 112 94 101
9.518914e-01 1.015696e+00 -3.033389e+00 47 46 48
1.252952e-01 1.079998e+00 -3.022048e+00 43 41 39
9.426108e-01 1.008490e+00 -3.026524e+00 173 166 158
9.074382e-01 9.998381e-01 -3.015469e+00 126 117 103
9.074382e-01 9.998381e-01 -3.015469e+00 126 117 103
2.786398e-01 1.030489e+00 -2.983104e+00 28 28 24
-4.143652e-02 1.082531e+00 -2.884879e+00 59 41 49
7.705615e-01 9.564729e-01 -2.920543e+00 214 178 163
2.982611e-01 6.694566e-01 -2.874947e+00 136 137 92
4.963257e-02 3.634383e-01 -2.761586e+00 159 153 152
3.705136e-01 1.395258e+00 -3.118171e+00 167 157 132
3.547670e-01 1.358535e+00 -3.101216e+00 71 59 67
-1.046417e-01 1.446264e+00 -2.982293e+00 40 64 87
-1.100058e-01 1.438493e+00 -2.982812e+00 92 111 127
3.713999e-01 1.275836e+00 -3.079678e+00 188 181 175
3.053964e-01 1.267952e+00 -3.069405e+00 40 40 49
1.205022e-01 1.165323e+00 -2.948030e+00 139 134 141
1.624023e-01 1.144651e+00 -2.955928e+00 135 130 134
-2.606080e-01 1.183023e+00 -2.947058e+00 47 45 54
1.131689e-01 1.089488e+00 -3.024018e+00 51 49 52
-1.107703e-01 1.119810e+00 -2.991258e+00 31 29 55
9.348276e-01 9.972455e-01 -3.013543e+00 178 168 158
9.250386e-01 9.848875e-01 -3.012216e+00 177 167 157
-4.104189e-02 9.783789e-01 -2.924552e+00 66 65 70
-3.826142e-02 9.751884e-01 -2.931766e+00 61 60 58
-9.833930e-02 9.934100e-01 -2.795721e+00 89 81 87
-4.060228e-02 9.754226e-01 -2.824968e+00 25 23 28
2.840673e-02 8.976929e-01 -2.948297e+00 101 105 89
1.293955e+00 6.538520e-01 -2.983136e+00 216 175 146
3.024440e-01 6.672124e-01 -2.874000e+00 73 67 70
3.160953e-01 6.649696e-01 -2.876984e+00 90 84 72
2.683167e-01 1.396313e+00 -3.107544e+00 171 158 150
-8.306933e-02 1.485073e+00 -3.047252e+00 102 116 123
5.855153e-01 1.305742e+00 -3.094091e+00 196 184 166
5.235029e-01 1.300797e+00 -3.079111e+00 180 169 160
-4.458252e-02 1.425718e+00 -3.022991e+00 36 40 49
3.035718e-01 1.240430e+00 -3.060046e+00 65 64 78
3.359731e-01 1.219693e+00 -3.058709e+00 141 132 123
-3.018080e-01 1.312052e+00 -2.983830e+00 187 176 183
-2.705874e-01 1.297534e+00 -2.968099e+00 190 187 185
-2.375549e-01 1.211754e+00 -2.926324e+00 93 102 111
3.501178e-01 1.090803e+00 -3.007219e+00 124 102 88
7.826682e-01 9.734196e-01 -2.927755e+00 218 182 166
-1.585222e-02 8.551810e-01 -2.856884e+00 61 56 60
1.130768e-01 4.199604e-01 -2.778796e+00 167 163 164
5.828328e-02 3.931329e-01 -2.767172e+00 174 170 171
1.707760e-02 1.491579e+00 -3.082473e+00 106 110 112
5.911403e-01 1.328982e+00 -3.100618e+00 163 148 145
-2.834269e-03 1.460570e+00 -3.063707e+00 100 108 109
3.358488e-01 1.276783e+00 -3.075149e+00 186 176 174
3.565401e-01 1.178442e+00 -3.039997e+00 164 158 143
4.299389e-01 1.147362e+00 -3.028643e+00 40 36 33
1.610780e-01 1.170276e+00 -2.954912e+00 32 32 39
-7.828115e-02 1.198253e+00 -2.911663e+00 60 52 69
3.772983e-01 1.094530e+00 -3.005860e+00 122 113 96
-1.108731e-01 1.150811e+00 -3.001571e+00 31 31 41
3.588127e-01 1.027040e+00 -2.985363e+00 141 139 138
5.844154e-02 1.047610e+00 -2.999390e+00 42 49 59
3.538483e-02 1.047726e+00 -3.004643e+00 42 49 59
-2.767334e-02 1.002177e+00 -2.919698e+00 107 108 112
-3.828507e-02 9.797939e-01 -2.945515e+00 18 21 30
2.654584e-02 9.144641e-01 -2.956568e+00 142 142 129
5.138758e-02 5.273948e-01 -2.793739e+00 168 166 167
1.484277e-01 3.002313e-01 -2.753048e+00 31 33 46
2.836201e-01 1.397240e+00 -3.113920e+00 121 103 90
-1.445681e-02 1.441533e+00 -3.062540e+00 38 38 47
2.934451e-01 1.342898e+00 -3.066148e+00 149 153 149
2.934451e-01 1.342898e+00 -3.066148e+00 149 153 149
-2.909047e-02 1.386615e+00 -3.074654e+00 28 31 40
3.538062e-01 1.257223e+00 -3.071382e+00 148 140 132
-7.647371e-02 1.177421e+00 -2.935122e+00 51 49 61
-6.407091e-02 1.134057e+00 -2.990458e+00 27 28 30
7.685764e-01 9.823509e-01 -2.927692e+00 187 150 134
-2.846478e-02 8.488619e-01 -2.830201e+00 193 187 187
-4.676759e-02 7.017209e-01 -2.812577e+00 39 39 53
3.245759e-01 6.722881e-01 -2.883238e+00 33 31 26
-4.655652e-02 1.418294e+00 -3.039909e+00 92 92 94
1.629017e-01 1.352870e+00 -3.041132e+00 42 40 27
-4.312068e-02 1.399002e+00 -3.066279e+00 67 71 73
2.371372e-01 1.137142e+00 -3.025679e+00 65 71 88
4.226049e-02 4.111099e-01 -2.767290e+00 182 181 179
-6.569126e-03 1.474194e+00 -3.053488e+00 53 57 66
-1.655163e-01 1.262819e+00 -2.935035e+00 67 56 65
3.184839e-01 1.276947e+00 -3.073221e+00 35 33 46
1.349626e-02 1.231151e+00 -2.979281e+00 38 43 50
-1.111439e-01 1.225203e+00 -2.920549e+00 148 183 181
2.255102e-01 1.349845e+00 -3.057928e+00 74 76 61
2.891095e-01 1.247548e+00 -3.049270e+00 113 112 118
-2.777871e-02 1.214205e+00 -2.958056e+00 122 125 132
-4.990806e-02 1.190519e+00 -2.922082e+00 54 54 64
1.645606e-01 1.222091e+00 -2.959635e+00 178 171 159
6.271117e-02 5.434921e-01 -2.797612e+00 161 158 155
1.892733e-01 5.637410e-01 -2.844401e+00 192 191 193
2.067631e-01 5.863649e-01 -2.851552e+00 75 76 89
2.994739e-01 6.431250e-01 -2.877701e+00 215 200 203
2.912594e-01 6.517628e-01 -2.878783e+00 26 21 27
2.912594e-01 6.517628e-01 -2.878783e+00 26 21 27
3.569590e-01 8.332201e-01 -2.823007e+00 80 78 83
3.927023e-01 8.504433e-01 -2.833738e+00 224 217 203
3.970121e-01 8.597278e-01 -2.836679e+00 182 173 161
3.932656e-01 8.631102e-01 -2.837451e+00 180 173 157
1.649900e-01 8.723524e-01 -2.926261e+00 155 165 166
-6.546528e-02 9.574208e-01 -2.822032e+00 152 122 137
3.853376e-01 9.057778e-01 -2.850836e+00 214 214 217
7.638764e-02 9.135603e-01 -2.962709e+00 110 104 97
4.338984e-01 9.062056e-01 -2.857151e+00 224 217 208
4.172273e-01 9.329900e-01 -2.863953e+00 239 232 222
3.452320e-01 9.296252e-01 -2.948023e+00 86 73 61
-3.243368e-02 1.031891e+00 -2.846844e+00 174 150 155
-4.419929e-02 1.042788e+00 -2.851129e+00 164 137 151
9.528680e-02 9.965638e-01 -2.982786e+00 45 55 65
5.181513e-02 1.021924e+00 -2.990893e+00 52 65 80
4.211141e-01 9.750832e-01 -2.975711e+00 153 147 145
3.391769e-01 1.059489e+00 -2.997913e+00 63 67 76
2.018125e-01 1.089421e+00 -3.003535e+00 179 178 175
7.224618e-02 1.139333e+00 -2.967064e+00 231 211 206
3.563967e-01 1.081796e+00 -3.003000e+00 243 237 228
3.563967e-01 1.081796e+00 -3.003000e+00 243 237 228
4.351076e-01 1.072385e+00 -2.999422e+00 239 226 209
4.558057e-01 1.089183e+00 -3.010174e+00 239 236 236
4.476176e-01 1.108717e+00 -3.018094e+00 45 41 30
3.628638e-01 1.163934e+00 -3.033618e+00 104 103 90
3.644619e-01 1.204220e+00 -3.049888e+00 173 174 155
2.486459e-01 5.740388e-01 -2.848937e+00 170 167 163
2.352371e-01 7.388928e-01 -2.784419e+00 174 173 171
4.264662e-01 8.097377e-01 -2.783848e+00 186 182 170
4.336217e-01 8.121261e-01 -2.785362e+00 193 192 186
3.806705e-01 8.459774e-01 -2.828605e+00 181 175 161
3.786231e-01 8.464506e-01 -2.830287e+00 240 232 219
3.908132e-01 8.515932e-01 -2.832999e+00 179 171 159
4.341557e-01 8.987945e-01 -2.856754e+00 193 185 177
3.868401e-01 9.083813e-01 -2.850952e+00 96 97 98
4.292151e-01 9.175422e-01 -2.861484e+00 199 191 182
2.991572e-01 9.164206e-01 -2.937232e+00 109 109 111
6.740195e-02 9.842594e-01 -2.973529e+00 43 51 64
-4.835508e-02 1.086698e+00 -2.900716e+00 148 121 135
4.147779e-01 9.879227e-01 -2.976553e+00 68 68 74
4.726188e-02 1.061262e+00 -3.011327e+00 57 67 79
3.722796e-01 1.013816e+00 -2.982162e+00 91 92 96
1.967573e-01 1.089838e+00 -3.004534e+00 66 64 76
1.568005e-01 1.094516e+00 -3.031350e+00 38 43 46
2.178578e-01 1.107638e+00 -3.009512e+00 91 94 107
3.453065e-01 1.124193e+00 -3.017055e+00 216 206 190
2.999903e-01 1.134560e+00 -3.023187e+00 44 34 43
3.066164e-01 1.135724e+00 -3.023916e+00 54 53 67
1.622283e-01 1.209137e+00 -2.966681e+00 179 170 173
3.253750e-01 1.180976e+00 -3.042119e+00 135 122 99
2.089340e-01 5.280566e-01 -2.834491e+00 187 186 194
2.639011e-01 5.965764e-01 -2.859162e+00 200 195 189
-7.819039e-03 9.111491e-01 -2.955988e+00 105 130 88
1.025607e-01 1.002201e+00 -2.987915e+00 20 25 28
4.739539e-02 1.034334e+00 -2.999547e+00 32 38 50
1.554397e-01 1.087337e+00 -3.025835e+00 107 119 83
2.959449e-01 1.121541e+00 -3.017158e+00 110 93 78
1.324585e-01 1.237477e+00 -2.973838e+00 189 186 181
3.406773e-01 1.186741e+00 -3.046149e+00 240 239 235
9.362697e-02 5.299683e-01 -2.795403e+00 157 156 154
2.024626e-01 5.318172e-01 -2.833458e+00 90 91 109
1.933707e-01 5.867397e-01 -2.852050e+00 203 208 217
1.933707e-01 5.867397e-01 -2.852050e+00 203 208 217
2.281441e-01 7.808917e-01 -2.795944e+00 160 160 162
4.915235e-01 8.011465e-01 -2.792110e+00 187 186 175
2.619501e-01 8.228571e-01 -2.820953e+00 146 134 136
6.235394e-02 1.013087e+00 -2.987823e+00 61 75 88
6.429270e-02 1.016702e+00 -2.993726e+00 42 52 66
4.089371e-01 9.935258e-01 -2.977048e+00 54 57 63
7.934958e-03 1.082193e+00 -3.011649e+00 33 37 43
3.017322e-01 1.087968e+00 -3.002349e+00 125 120 117
1.549564e-01 1.145495e+00 -2.953531e+00 101 102 107
1.259098e-01 1.166045e+00 -2.951060e+00 114 115 117
4.682724e-01 1.091457e+00 -3.012389e+00 193 180 164
1.790950e-01 5.161974e-01 -2.828621e+00 50 50 62
2.134386e-01 5.170237e-01 -2.830164e+00 83 92 106
1.754197e-01 6.809135e-01 -2.799448e+00 54 64 74
1.878968e-01 7.565003e-01 -2.783965e+00 165 172 182
4.729714e-01 7.664059e-01 -2.769062e+00 168 177 184
4.751411e-01 7.727176e-01 -2.774328e+00 96 112 127
4.751411e-01 7.727176e-01 -2.774328e+00 96 112 127
4.430118e-01 8.029988e-01 -2.784091e+00 209 201 184
2.501067e-01 8.216959e-01 -2.816903e+00 43 49 65
-2.366031e-02 8.921171e-01 -2.942461e+00 15 29 18
4.191745e-01 8.952580e-01 -2.850421e+00 207 201 188
2.943826e-01 9.079434e-01 -2.935271e+00 69 63 60
6.322057e-03 9.471437e-01 -2.968052e+00 20 26 24
4.277534e-02 1.042095e+00 -3.001668e+00 37 40 51
4.142241e-01 9.960017e-01 -2.979910e+00 128 127 128
3.714971e-01 1.018402e+00 -2.984326e+00 108 106 111
3.650726e-01 1.091376e+00 -3.004764e+00 118 100 88
1.202166e-01 1.156635e+00 -2.945631e+00 99 107 111
4.225653e-01 1.099417e+00 -3.012664e+00 88 78 77
1.608169e-01 1.202042e+00 -2.963628e+00 113 104 106
1.608169e-01 1.202042e+00 -2.963628e+00 113 104 106
6.722475e-02 5.509282e-01 -2.799532e+00 196 194 196
2.688214e-01 6.593600e-01 -2.877968e+00 168 163 156
2.688214e-01 6.593600e-01 -2.877968e+00 168 163 156
2.891642e-01 6.813793e-01 -2.881231e+00 27 27 27
4.337973e-01 8.178301e-01 -2.786460e+00 97 100 108
4.382640e-01 8.186824e-01 -2.788106e+00 103 109 112
-1.958942e-02 9.065648e-01 -2.955889e+00 17 29 17
-6.863245e-02 1.019379e+00 -2.820563e+00 51 40 56
-7.247480e-02 1.018891e+00 -2.827279e+00 51 40 56
1.284741e-01 9.443546e-01 -2.958384e+00 66 70 81
3.871653e-02 9.624356e-01 -2.976191e+00 19 23 24
2.094270e-02 9.771926e-01 -2.976363e+00 16 20 21
3.762091e-01 1.012981e+00 -2.981323e+00 106 107 111
7.280397e-02 5.570926e-01 -2.802868e+00 161 157 154
8.338638e-02 5.788153e-01 -2.837647e+00 134 133 129
2.879023e-01 6.618392e-01 -2.878742e+00 153 150 139
3.358025e-01 6.622481e-01 -2.882363e+00 138 133 96
2.400826e-01 7.877134e-01 -2.799577e+00 153 152 148
2.267055e-01 8.091911e-01 -2.803111e+00 145 145 145
-3.078719e-02 8.823075e-01 -2.941756e+00 21 28 26
3.064028e-01 9.450142e-01 -2.934471e+00 223 209 149
4.242780e-01 9.846845e-01 -2.978851e+00 64 64 66
-6.634633e-03 1.086802e+00 -3.012485e+00 39 34 38
4.601605e-02 5.669990e-01 -2.841908e+00 163 151 139
3.380486e-01 6.749763e-01 -2.889761e+00 143 132 100
2.258295e-01 8.351670e-01 -2.816029e+00 114 113 110
4.700134e-01 9.500274e-01 -2.968972e+00 138 133 129
2.318576e-01 1.114520e+00 -3.012614e+00 179 176 171
1.564912e-01 1.219733e+00 -2.972094e+00 102 94 88
8.960560e-02 5.800239e-01 -2.846232e+00 56 60 70
3.244212e-01 6.709034e-01 -2.884657e+00 33 31 26
1.714583e-01 1.052750e+00 -2.990963e+00 49 51 59
3.847716e-01 1.096527e+00 -2.999296e+00 112 106 89
-1.596124e-02 8.825355e-01 -2.937301e+00 101 130 78
5.816186e-02 1.008229e+00 -2.982973e+00 50 63 79
2.344891e-01 1.111635e+00 -3.008780e+00 176 171 166
3.174167e-02 5.644453e-01 -2.816991e+00 32 31 36
3.814819e-01 1.081378e+00 -2.997590e+00 146 129 111
-3.891956e-02 8.836560e-01 -2.933580e+00 16 20 23
4.175525e-01 1.072877e+00 -2.998116e+00 165 148 128
3.555472e-01 1.310457e+00 -3.080992e+00 155 155 151
3.457691e-02 1.266074e+00 -2.982921e+00 17 21 24
3.698524e-01 1.277528e+00 -3.075868e+00 127 118 118
1.274037e-01 1.253025e+00 -2.983183e+00 26 21 45
9.768700e-02 1.251954e+00 -2.978503e+00 83 90 106
4.238713e-01 1.267970e+00 -3.074252e+00 165 158 131
3.534059e-01 1.255730e+00 -3.068887e+00 186 179 168
3.534059e-01 1.255730e+00 -3.068887e+00 186 179 168
1.847914e-01 1.223542e+00 -2.979519e+00 67 56 50
4.647032e-01 1.251027e+00 -3.064469e+00 197 191 169
4.339741e-01 1.244354e+00 -3.065336e+00 149 135 127
4.343638e-01 1.237045e+00 -3.063045e+00 104 96 87
3.707985e-01 1.234944e+00 -3.066628e+00 201 193 182
6.536193e-01 1.230673e+00 -2.955591e+00 28 30 35
4.055961e-01 1.230999e+00 -3.063132e+00 166 156 144
3.663778e-01 1.220150e+00 -3.061883e+00 162 154 135
2.857825e-01 1.211917e+00 -3.051834e+00 174 174 173
7.393243e-01 1.228476e+00 -2.953583e+00 196 193 211
3.590817e-01 1.211722e+00 -3.057542e+00 255 253 254
3.285209e-01 1.208930e+00 -3.053413e+00 182 176 168
4.084155e-01 1.207070e+00 -3.055304e+00 170 157 143
-2.408244e-01 1.223383e+00 -2.894499e+00 21 23 39
2.529269e-02 1.196428e+00 -2.974278e+00 116 113 83
-2.366687e-01 1.221297e+00 -2.904149e+00 33 38 50
-2.450350e-01 1.218439e+00 -2.892345e+00 25 22 36
5.328562e-01 1.207214e+00 -3.053939e+00 205 196 180
-2.459486e-01 1.216261e+00 -2.893309e+00 195 191 203
-2.482560e-01 1.213649e+00 -2.891669e+00 224 222 219
-2.452872e-01 1.210726e+00 -2.905107e+00 31 37 49
5.227135e-01 1.194018e+00 -3.048836e+00 192 177 161
7.947997e-01 1.209196e+00 -2.942286e+00 200 188 199
5.764484e-01 1.184995e+00 -3.035853e+00 43 43 35
6.741357e-01 1.186100e+00 -2.984505e+00 232 211 206
5.066536e-01 1.166220e+00 -3.036962e+00 185 179 159
5.952177e-01 1.168448e+00 -3.014043e+00 144 125 110
6.845926e-01 1.105313e+00 -2.983091e+00 190 190 185
6.845926e-01 1.105313e+00 -2.983091e+00 190 190 185
7.523719e-01 1.109299e+00 -2.937300e+00 215 222 235
7.523719e-01 1.109299e+00 -2.937300e+00 215 222 235
7.538052e-01 1.103857e+00 -2.941522e+00 73 73 99
6.593205e-01 1.097840e+00 -3.016923e+00 141 130 125
7.565461e-01 1.102716e+00 -2.942444e+00 71 70 88
7.468370e-01 1.089871e+00 -2.972623e+00 212 211 226
6.107134e-01 1.057366e+00 -2.991802e+00 149 159 168
-3.957794e-01 1.071666e+00 -2.833669e+00 243 236 214
5.618242e-01 1.019637e+00 -2.997038e+00 42 51 25
5.795583e-01 1.020154e+00 -2.997920e+00 200 188 135
5.658270e-01 9.959623e-01 -2.990007e+00 132 141 139
-3.391826e-01 9.841873e-01 -2.828381e+00 158 144 160
-2.644446e-01 9.731113e-01 -2.881567e+00 80 80 92
6.759054e-01 9.484621e-01 -2.995245e+00 171 166 160
7.752427e-01 9.594415e-01 -2.930303e+00 206 178 174
7.711132e-01 9.330592e-01 -2.919377e+00 139 113 113
7.135136e-01 9.036653e-01 -2.896923e+00 204 172 169
